184.328 179.811 854.750
185.379 179.879 855.072
186.280 179.801 854.699
187.320 179.857 854.965
188.259 179.816 854.772
189.277 179.851 854.939
190.258 179.850 854.934
191.248 179.858 854.974
192.225 179.854 854.952
193.220 179.866 855.008
194.216 179.879 855.072
195.155 179.840 854.886
196.168 179.868 855.022
197.101 179.824 854.810
198.130 179.867 855.016
199.068 179.827 854.825
200.091 179.865 855.003
201.026 179.823 854.804
202.041 179.853 854.946
203.016 179.847 854.918
204.031 179.876 855.055
204.979 179.846 854.916
205.987 179.869 855.025
206.904 179.813 854.757
207.931 179.853 854.946
208.854 179.802 854.706
209.911 179.866 855.012
210.795 179.784 854.618
211.830 179.829 854.834
212.750 179.776 854.584
213.842 179.870 855.027
214.764 179.820 854.789
215.784 179.851 854.941
216.699 179.797 854.680
217.746 179.851 854.937
218.682 179.813 854.759
219.645 179.798 854.686
220.659 179.825 854.814
221.636 179.821 854.795
222.609 179.814 854.761
223.528 179.763 854.522
224.618 179.851 854.936
225.490 179.763 854.522
226.558 179.832 854.848
227.434 179.749 854.453
228.518 179.830 854.838
229.414 179.763 854.518
230.444 179.801 854.700
231.357 179.747 854.445
232.443 179.828 854.831
233.307 179.738 854.404
234.389 179.815 854.769
235.320 179.777 854.588
236.362 179.824 854.808
237.252 179.754 854.476
238.279 179.789 854.642
239.224 179.761 854.510
240.273 179.812 854.752
241.175 179.752 854.469
242.201 179.786 854.628
243.139 179.754 854.475
244.121 179.755 854.480
245.106 179.757 854.492
246.028 179.714 854.286
247.095 179.776 854.584
247.969 179.699 854.216
249.104 179.810 854.744
249.930 179.698 854.213
251.077 179.817 854.779
251.865 179.679 854.121
253.042 179.819 854.785
253.864 179.706 854.248
254.946 179.777 854.586
255.830 179.708 854.261
256.822 179.716 854.298
257.835 179.739 854.405
258.843 179.758 854.494
259.838 179.767 854.540
260.826 179.772 854.563
261.698 179.697 854.204
262.758 179.751 854.462
263.678 179.709 854.265
264.667 179.715 854.292
265.663 179.725 854.339
266.623 179.711 854.271
267.685 179.765 854.531
268.587 179.712 854.277
269.671 179.781 854.606
270.488 179.672 854.086
271.616 179.769 854.549
272.409 179.645 853.960
273.608 179.788 854.640
274.402 179.666 854.058
275.423 179.692 854.185
276.404 179.692 854.183
277.436 179.726 854.342
278.389 179.707 854.254
279.319 179.674 854.098
280.359 179.713 854.281
281.363 179.727 854.351
282.322 179.713 854.282
283.306 179.715 854.293
284.226 179.677 854.111
285.230 179.692 854.181
286.228 179.702 854.231
287.152 179.666 854.061
288.270 179.752 854.468
289.043 179.623 853.855
290.214 179.741 854.414
290.973 179.604 853.764
292.209 179.761 854.511
293.021 179.657 854.017
294.088 179.710 854.268
295.038 179.691 854.178
296.021 179.692 854.184
297.011 179.698 854.211
297.956 179.676 854.107
298.952 179.686 854.153
299.970 179.708 854.259
300.939 179.701 854.224
301.876 179.674 854.099
302.860 179.676 854.108
303.818 179.663 854.047
-223.844 181.488 858.038
-222.714 181.370 857.480
-221.789 181.419 857.708
-220.699 181.333 857.302
-219.930 181.510 858.140
-218.846 181.428 857.753
-217.843 181.414 857.686
-216.932 181.476 857.978
-215.839 181.385 857.548
-214.949 181.465 857.926
-213.843 181.362 857.442
-212.939 181.431 857.766
-211.961 181.437 857.796
-210.909 181.379 857.523
-209.965 181.414 857.688
-208.952 181.390 857.573
-208.131 181.532 858.245
-207.018 181.421 857.721
-206.106 181.485 858.023
-204.980 181.360 857.432
-204.009 181.372 857.489
-202.999 181.350 857.384
-202.009 181.345 857.361
-201.138 181.448 857.846
-200.013 181.320 857.242
-199.139 181.421 857.721
-198.066 181.341 857.340
-197.160 181.413 857.680
-196.125 181.366 857.462
-195.162 181.386 857.554
-194.181 181.389 857.571
-193.167 181.362 857.440
-192.328 181.499 858.090
-191.201 181.365 857.454
-190.279 181.425 857.739
-189.211 181.345 857.359
-188.321 181.436 857.790
-187.259 181.362 857.440
-186.251 181.338 857.329
-185.297 181.369 857.473
-184.236 181.294 857.117
-183.384 181.424 857.734
-182.277 181.303 857.161
-181.418 181.428 857.751
-180.337 181.331 857.297
-179.402 181.381 857.532
-178.411 181.375 857.502
-177.394 181.341 857.343
-176.451 181.384 857.544
-175.404 181.320 857.241
-174.491 181.394 857.594
-173.397 181.280 857.053
-172.527 181.400 857.621
-171.439 181.291 857.103
-170.484 181.322 857.249
-169.488 181.310 857.194
-168.515 181.322 857.250
-167.555 181.348 857.375
-166.509 181.281 857.056
-165.579 181.340 857.339
-164.496 181.231 856.822
-163.602 181.332 857.297
-162.565 181.272 857.017
-161.644 181.344 857.353
-160.622 181.301 857.155
-159.630 181.292 857.112
-158.668 181.318 857.231
-157.635 181.261 856.964
-156.735 181.359 857.427
-155.673 181.269 857.002
-154.780 181.375 857.504
-153.724 181.291 857.105
-152.783 181.342 857.347
-151.736 181.268 856.996
-150.748 181.263 856.973
-149.820 181.331 857.292
-148.789 181.274 857.023
-147.893 181.382 857.534
-146.829 181.284 857.074
-145.911 181.366 857.459
-144.847 181.266 856.988
-143.921 181.340 857.337
-142.888 181.279 857.047
-141.918 181.297 857.132
-140.904 181.258 856.951
-139.909 181.244 856.885
-138.960 181.290 857.101
-137.932 181.232 856.824
-137.013 181.318 857.234
-135.981 181.255 856.933
-135.037 181.308 857.185
-134.013 181.254 856.931
-133.063 181.301 857.153
-132.041 181.249 856.908
-131.075 181.273 857.020
-130.075 181.252 856.921
-129.058 181.205 856.696
-128.095 181.234 856.834
-127.070 181.176 856.563
-126.144 181.259 856.952
-125.109 181.184 856.601
-124.197 181.289 857.097
-123.161 181.212 856.734
-122.206 181.256 856.938
-121.197 181.218 856.760
-120.241 181.260 856.957
-119.253 181.254 856.930
-118.259 181.238 856.855
-117.299 181.275 857.031
-116.314 181.274 857.025
-115.340 181.291 857.104
-114.243 181.110 856.251
-113.305 181.183 856.595
-112.256 181.078 856.100
-111.345 181.195 856.653
-110.361 181.194 856.648
-109.399 181.231 856.820
-108.392 181.191 856.633
-107.406 181.187 856.614
-106.422 181.187 856.615
-105.427 181.168 856.522
-104.470 181.214 856.740
-103.454 181.156 856.469
-102.502 181.213 856.737
-101.494 181.170 856.533
-100.569 181.275 857.028
-99.512 181.143 856.404
-98.575 181.228 856.809
-97.547 181.146 856.421
-96.549 181.119 856.291
-95.610 181.201 856.681
-94.653 181.253 856.927
-93.689 181.292 857.111
-92.671 181.226 856.799
-91.666 181.185 856.603
-90.666 181.151 856.443
-89.696 181.178 856.572
-88.687 181.127 856.328
-87.744 181.209 856.719
-86.739 181.166 856.514
-85.781 181.219 856.766
-84.751 181.119 856.294
-83.778 181.142 856.403
-82.766 181.080 856.107
-81.783 181.079 856.103
-80.802 181.084 856.127
-79.840 181.132 856.353
-78.870 181.163 856.502
-77.890 181.172 856.541
-76.904 181.166 856.513
-75.894 181.102 856.210
-74.930 181.148 856.430
-73.902 181.040 855.917
-72.956 181.130 856.346
-71.963 181.106 856.229
-70.994 181.143 856.406
-69.975 181.050 855.965
-69.019 181.120 856.294
-68.012 181.057 856.000
-67.048 181.109 856.244
-66.063 181.102 856.212
-65.087 181.123 856.313
-64.099 181.110 856.250
-63.106 181.083 856.123
-62.122 181.080 856.106
-61.135 181.068 856.050
-60.164 181.105 856.225
-59.149 181.006 855.757
-58.181 181.051 855.971
-57.204 181.069 856.056
-56.220 181.066 856.039
-55.223 181.021 855.830
-54.276 181.142 856.399
-53.252 181.002 855.741
-52.303 181.118 856.288
-51.310 181.085 856.130
-50.339 181.126 856.327
-49.333 181.045 855.941
-48.351 181.047 855.954
-47.365 181.035 855.894
-46.383 181.037 855.906
-45.409 181.074 856.080
-44.424 181.065 856.037
-43.437 181.047 855.953
-42.456 181.055 855.988
-41.472 181.052 855.974
-40.477 180.996 855.711
-39.511 181.074 856.078
-38.502 180.954 855.510
-37.544 181.070 856.061
-36.542 180.975 855.612
-35.602 181.190 856.626
-34.604 181.116 856.277
-33.606 181.034 855.891
-32.608 180.954 855.511
-31.638 181.021 855.829
-30.637 180.913 855.320
-29.667 180.987 855.670
-28.683 180.980 855.636
-27.703 180.996 855.709
-26.719 180.986 855.665
-25.740 181.008 855.766
-24.756 181.003 855.742
-23.773 180.996 855.708
-22.793 181.021 855.827
-21.804 180.968 855.576
-20.834 181.076 856.088
-19.843 181.002 855.739
-18.864 181.037 855.903
-17.872 180.940 855.448
-16.896 181.008 855.768
-15.910 180.973 855.602
-14.930 181.007 855.762
-13.941 180.926 855.378
-12.967 181.041 855.922
-11.978 180.939 855.440
-11.001 181.033 855.884
-10.014 180.945 855.471
-9.034 181.006 855.757
-8.048 180.931 855.403
-7.068 180.975 855.612
-6.084 180.941 855.449
-5.104 181.002 855.738
-4.121 181.000 855.728
-3.139 181.038 855.909
-2.156 180.995 855.704
-1.173 180.978 855.628
-0.191 180.938 855.438
0.792 180.939 855.440
1.774 180.978 855.624
2.756 180.929 855.393
3.739 180.949 855.491
4.720 180.923 855.365
5.702 180.916 855.331
6.683 180.878 855.153
7.668 180.944 855.464
8.650 180.939 855.442
9.638 181.042 855.928
10.617 180.977 855.623
11.602 181.019 855.820
12.578 180.923 855.367
13.563 180.959 855.534
14.538 180.865 855.093
15.530 180.988 855.671
16.504 180.899 855.251
17.497 181.012 855.784
18.464 180.857 855.051
19.459 180.979 855.632
20.434 180.907 855.291
21.413 180.886 855.193
22.395 180.883 855.179
23.389 180.981 855.639
24.361 180.901 855.260
25.342 180.892 855.217
26.315 180.829 854.921
27.297 180.832 854.935
28.275 180.808 854.820
29.276 180.928 855.389
30.263 180.956 855.522
31.253 181.001 855.734
32.233 180.984 855.654
33.204 180.925 855.375
34.177 180.877 855.149
35.164 180.900 855.258
36.142 180.879 855.157
37.123 180.877 855.149
38.109 180.893 855.225
39.077 180.833 854.938
40.072 180.892 855.217
41.047 180.862 855.075
42.034 180.884 855.180
42.998 180.805 854.810
43.976 180.791 854.741
44.957 180.790 854.738
45.963 180.887 855.194
46.959 180.942 855.456
47.934 180.911 855.310
48.876 180.766 854.625
49.862 180.781 854.694
50.856 180.828 854.915
51.871 180.942 855.454
52.856 180.951 855.497
53.826 180.912 855.313
54.783 180.828 854.916
55.783 180.886 855.191
56.746 180.826 854.906
57.743 180.876 855.142
58.704 180.811 854.835
59.711 180.888 855.201
60.673 180.826 854.908
61.666 180.862 855.075
62.621 180.784 854.709
63.615 180.818 854.868
64.596 180.816 854.859
65.600 180.878 855.155
66.565 180.832 854.936
67.562 180.873 855.131
68.523 180.819 854.873
69.517 180.852 855.029
70.472 180.782 854.697
71.478 180.845 854.995
72.451 180.821 854.884
73.458 180.884 855.183
74.400 180.788 854.725
75.415 180.869 855.109
76.368 180.800 854.783
77.380 180.871 855.118
78.343 180.826 854.909
79.344 180.870 855.117
80.288 180.785 854.714
81.306 180.868 855.103
82.259 180.805 854.805
83.274 180.876 855.145
84.222 180.805 854.806
85.243 180.887 855.195
86.184 180.802 854.795
87.183 180.837 854.961
88.120 180.746 854.530
89.131 180.806 854.812
90.082 180.745 854.525
91.116 180.851 855.023
92.063 180.781 854.695
93.087 180.864 855.089
94.020 180.770 854.640
95.033 180.830 854.925
95.961 180.730 854.454
96.987 180.812 854.843
97.941 180.762 854.605
98.975 180.859 855.061
99.903 180.762 854.602
100.902 180.792 854.747
101.864 180.758 854.584
102.881 180.821 854.883
103.810 180.728 854.446
104.838 180.810 854.831
105.785 180.750 854.548
106.779 180.773 854.654
107.759 180.771 854.645
108.757 180.798 854.774
109.707 180.747 854.532
110.708 180.779 854.685
111.691 180.781 854.694
112.671 180.778 854.682
113.657 180.787 854.721
114.640 180.788 854.729
115.618 180.782 854.701
116.581 180.754 854.567
117.540 180.720 854.408
118.504 180.693 854.280
119.514 180.738 854.489
120.460 180.686 854.244
121.486 180.753 854.560
122.437 180.707 854.346
123.472 180.787 854.724
124.402 180.712 854.366
125.430 180.779 854.685
126.357 180.703 854.323
127.418 180.815 854.855
128.315 180.697 854.295
129.368 180.798 854.773
130.288 180.712 854.369
131.371 180.852 855.032
132.266 180.733 854.466
133.308 180.817 854.862
134.222 180.724 854.426
135.274 180.819 854.876
136.182 180.722 854.416
137.245 180.830 854.925
138.134 180.709 854.353
139.185 180.799 854.781
140.088 180.699 854.304
141.160 180.815 854.852
142.057 180.707 854.343
143.090 180.773 854.656
144.015 180.702 854.321
145.039 180.756 854.577
145.950 180.669 854.164
147.013 180.770 854.641
147.950 180.716 854.388
148.934 180.719 854.399
149.913 180.717 854.393
150.924 180.753 854.560
151.887 180.731 854.456
152.882 180.748 854.536
153.848 180.729 854.450
154.859 180.764 854.615
155.811 180.730 854.453
156.769 180.703 854.326
157.735 180.686 854.245
158.752 180.727 854.440
159.739 180.734 854.471
160.724 180.738 854.491
161.689 180.721 854.409
162.689 180.741 854.504
163.638 180.706 854.340
164.618 180.704 854.330
165.605 180.711 854.362
166.610 180.737 854.487
167.584 180.729 854.448
168.575 180.740 854.501
169.485 180.664 854.142
170.474 180.672 854.180
171.510 180.731 854.457
172.442 180.680 854.216
173.441 180.699 854.305
174.330 180.603 853.852
175.391 180.686 854.243
176.315 180.628 853.971
177.400 180.734 854.473
178.230 180.581 853.747
179.381 180.753 854.561
180.210 180.601 853.842
181.355 180.765 854.617
182.174 180.603 853.855
183.282 180.730 854.451
184.185 180.652 854.086
185.233 180.719 854.399
186.140 180.646 854.056
187.175 180.699 854.306
188.109 180.654 854.092
189.105 180.668 854.161
190.087 180.669 854.166
191.065 180.667 854.156
192.066 180.686 854.245
192.972 180.616 853.912
194.044 180.701 854.316
194.998 180.676 854.196
195.978 180.675 854.192
196.904 180.625 853.956
197.962 180.695 854.289
198.893 180.650 854.073
199.929 180.700 854.310
200.881 180.674 854.187
201.871 180.682 854.227
202.801 180.637 854.012
203.819 180.670 854.169
204.776 180.649 854.071
205.748 180.641 854.033
206.699 180.615 853.909
207.709 180.641 854.033
208.635 180.594 853.811
209.715 180.679 854.212
210.617 180.612 853.894
211.669 180.673 854.182
212.554 180.592 853.798
213.634 180.676 854.197
214.508 180.586 853.771
215.589 180.670 854.170
216.488 180.602 853.846
217.534 180.657 854.106
218.440 180.595 853.813
219.466 180.632 853.990
220.497 180.673 854.186
221.434 180.638 854.017
222.432 180.652 854.084
223.295 180.557 853.633
224.415 180.669 854.164
225.243 180.547 853.586
226.345 180.644 854.045
227.190 180.536 853.536
228.301 180.640 854.026
229.187 180.565 853.673
230.266 180.643 854.040
231.175 180.586 853.773
232.176 180.602 853.849
233.070 180.536 853.534
234.135 180.601 853.843
235.072 180.568 853.685
236.143 180.637 854.014
237.009 180.550 853.601
238.065 180.608 853.875
238.968 180.549 853.595
240.024 180.606 853.867
240.945 180.562 853.657
242.012 180.626 853.963
242.947 180.592 853.800
243.892 180.566 853.677
244.881 180.572 853.707
245.814 180.538 853.543
246.901 180.616 853.913
247.762 180.529 853.503
248.919 180.657 854.110
249.726 180.532 853.515
250.871 180.651 854.077
251.659 180.512 853.424
252.841 180.657 854.105
253.704 180.573 853.708
254.675 180.566 853.678
255.646 180.560 853.647
256.620 180.555 853.627
257.648 180.589 853.784
258.606 180.573 853.712
259.593 180.578 853.732
260.565 180.572 853.705
261.475 180.524 853.477
262.508 180.560 853.648
263.446 180.531 853.511
264.497 180.579 853.740
265.418 180.539 853.551
266.359 180.512 853.424
267.436 180.578 853.735
268.322 180.515 853.436
269.455 180.617 853.920
270.246 180.491 853.321
271.438 180.632 853.989
272.173 180.469 853.220
273.340 180.593 853.804
274.143 180.476 853.251
275.203 180.529 853.502
276.114 180.484 853.288
277.191 180.547 853.586
278.155 180.537 853.538
279.110 180.520 853.461
280.076 180.511 853.417
281.097 180.538 853.544
282.033 180.509 853.410
283.047 180.531 853.513
283.985 180.504 853.385
284.963 180.503 853.379
285.973 180.522 853.469
286.887 180.481 853.275
287.989 180.557 853.635
288.785 180.442 853.090
289.977 180.574 853.715
290.705 180.418 852.976
291.911 180.558 853.639
292.737 180.463 853.190
293.793 180.510 853.412
294.757 180.500 853.365
295.752 180.509 853.407
296.707 180.494 853.338
297.666 180.481 853.277
298.708 180.519 853.454
299.707 180.531 853.510
300.596 180.475 853.249
301.599 180.489 853.315
302.561 180.479 853.265
303.506 180.459 853.169
304.635 180.547 853.588
-223.585 182.262 857.045
-222.504 182.183 856.669
-221.528 182.189 856.701
-220.557 182.200 856.750
-219.716 182.318 857.308
-218.689 182.282 857.138
-217.735 182.308 857.260
-216.754 182.311 857.273
-215.657 182.216 856.826
-214.761 182.290 857.174
-213.684 182.211 856.805
-212.717 182.226 856.873
-211.726 182.219 856.843
-210.740 182.217 856.834
-209.751 182.213 856.813
-208.806 182.247 856.974
-207.934 182.345 857.434
-206.845 182.253 857.002
-205.961 182.342 857.418
-204.848 182.228 856.881
-203.883 182.245 856.962
-202.882 182.229 856.888
-201.890 182.222 856.855
-200.976 182.286 857.154
-199.874 182.178 856.650
-198.997 182.276 857.110
-197.928 182.198 856.742
-196.990 182.240 856.941
-195.988 182.224 856.863
-195.025 182.242 856.951
-194.041 182.243 856.954
-193.040 182.226 856.876
-192.139 182.306 857.249
-191.039 182.195 856.727
-190.105 182.243 856.952
-189.049 182.173 856.625
-188.157 182.262 857.043
-187.050 182.143 856.482
-186.071 182.147 856.503
-185.041 182.101 856.285
-184.042 182.086 856.214
-183.169 182.195 856.729
-182.118 182.128 856.411
-181.220 182.214 856.817
-180.148 182.125 856.399
-179.216 182.177 856.643
-178.239 182.184 856.677
-177.247 182.175 856.634
-176.241 182.152 856.525
-175.226 182.119 856.372
-174.334 182.215 856.820
-173.254 182.114 856.347
-172.353 182.201 856.757
-171.258 182.083 856.200
-170.344 182.157 856.548
-169.332 182.126 856.402
-168.346 182.123 856.387
-167.366 182.127 856.409
-166.364 182.106 856.311
-165.412 182.141 856.473
-164.383 182.091 856.238
-163.470 182.168 856.601
-162.433 182.109 856.323
-161.488 182.152 856.527
-160.484 182.129 856.416
-159.481 182.106 856.310
-158.483 182.089 856.231
-157.500 182.090 856.234
-156.561 182.140 856.471
-155.523 182.077 856.172
-154.616 182.167 856.594
-153.569 182.091 856.239
-152.621 182.134 856.442
-151.609 182.099 856.278
-150.635 182.111 856.331
-149.653 182.112 856.336
-148.644 182.080 856.190
-147.709 182.139 856.466
-146.685 182.090 856.234
-145.749 182.148 856.509
-144.727 182.100 856.282
-143.787 182.155 856.539
-142.748 182.084 856.207
-141.795 182.123 856.390
-140.778 182.079 856.184
-139.787 182.069 856.134
-138.818 182.087 856.221
-137.821 182.070 856.139
-136.869 182.111 856.333
-135.835 182.042 856.011
-134.880 182.080 856.187
-133.867 182.040 855.999
-132.939 182.116 856.355
-131.921 182.067 856.128
-130.950 182.084 856.205
-129.933 182.036 855.980
-128.952 182.039 855.992
-127.979 182.053 856.059
-126.979 182.029 855.946
-126.009 182.048 856.036
-125.003 182.013 855.874
-124.061 182.074 856.157
-123.044 182.023 855.921
-122.110 182.096 856.261
-121.105 182.064 856.111
-120.132 182.079 856.181
-119.126 182.044 856.017
-118.150 182.055 856.070
-117.186 182.083 856.203
-116.186 182.058 856.082
-115.177 182.017 855.891
-114.155 181.954 855.597
-113.193 181.987 855.749
-112.140 181.873 855.213
-111.251 182.024 855.925
-110.258 182.009 855.852
-109.296 182.044 856.016
-108.304 182.028 855.942
-107.316 182.018 855.896
-106.315 181.987 855.749
-105.339 182.000 855.810
-104.361 182.008 855.847
-103.375 182.002 855.820
-102.400 182.014 855.879
-101.404 181.991 855.768
-100.459 182.060 856.094
-99.426 181.968 855.660
-98.480 182.036 855.982
-97.452 181.952 855.586
-96.502 182.013 855.872
-95.514 182.002 855.821
-94.567 182.072 856.150
-93.576 182.055 856.072
-92.584 182.038 855.992
-91.586 182.009 855.853
-90.579 181.960 855.623
-89.602 181.971 855.676
-88.607 181.944 855.549
-87.669 182.037 855.985
-86.652 181.966 855.653
-85.691 182.013 855.870
-84.659 181.906 855.371
-83.698 181.951 855.581
-82.667 181.845 855.081
-81.725 181.934 855.501
-80.739 181.926 855.465
-79.778 181.975 855.693
-78.791 181.963 855.638
-77.806 181.958 855.613
-76.818 181.944 855.549
-75.815 181.896 855.321
-74.849 181.935 855.504
-73.834 181.855 855.131
-72.893 181.956 855.603
-71.893 181.912 855.399
-70.929 181.959 855.619
-69.916 181.880 855.248
-68.966 181.964 855.643
-67.942 181.853 855.119
-66.992 181.940 855.531
-65.994 181.896 855.320
-65.035 181.962 855.633
-64.039 181.922 855.445
-63.044 181.887 855.279
-62.060 181.880 855.248
-61.079 181.883 855.259
-60.108 181.919 855.428
-59.108 181.863 855.165
-58.140 181.906 855.370
-57.137 181.842 855.066
-56.167 181.877 855.233
-55.166 181.817 854.951
-54.219 181.933 855.494
-53.199 181.805 854.895
-52.259 181.950 855.576
-51.251 181.857 855.139
-50.285 181.916 855.417
-49.281 181.836 855.038
-48.304 181.855 855.127
-47.316 181.830 855.012
-46.343 181.865 855.177
-45.359 181.857 855.138
-44.377 181.857 855.139
-43.406 181.900 855.340
-42.412 181.852 855.114
-41.441 181.898 855.333
-40.441 181.818 854.954
-39.478 181.906 855.369
-38.471 181.786 854.803
-37.510 181.886 855.276
-36.511 181.802 854.881
-35.561 181.963 855.639
-34.563 181.885 855.272
-33.571 181.827 854.999
-32.573 181.740 854.587
-31.608 181.832 855.021
-30.608 181.727 854.530
-29.641 181.815 854.940
-28.658 181.806 854.898
-27.683 181.847 855.091
-26.692 181.784 854.798
-25.717 181.832 855.021
-24.737 181.846 855.088
-23.749 181.796 854.851
-22.775 181.858 855.145
-21.782 181.768 854.719
-20.812 181.866 855.179
-19.821 181.785 854.799
-18.850 181.886 855.274
-17.856 181.759 854.677
-16.880 181.821 854.970
-15.891 181.735 854.565
-14.919 181.846 855.088
-13.930 181.756 854.664
-12.955 181.849 855.103
-11.965 181.720 854.494
-10.989 181.818 854.955
-10.004 181.743 854.604
-9.027 181.836 855.040
-8.042 181.764 854.702
-7.062 181.800 854.870
-6.080 181.794 854.844
-5.099 181.808 854.909
-4.117 181.782 854.788
-3.136 181.836 855.041
-2.154 181.806 854.898
-1.172 181.769 854.724
-0.190 181.761 854.688
0.791 181.728 854.530
1.773 181.792 854.835
2.753 181.735 854.566
3.736 181.797 854.857
4.715 181.711 854.451
5.698 181.772 854.739
6.676 181.670 854.261
7.661 181.775 854.753
8.641 181.726 854.523
9.628 181.842 855.070
10.603 181.718 854.485
11.588 181.788 854.814
12.562 181.676 854.286
13.550 181.774 854.750
14.523 181.660 854.211
15.516 181.811 854.923
16.484 181.661 854.218
17.480 181.814 854.936
18.451 181.705 854.422
19.446 181.838 855.048
20.413 181.707 854.432
21.398 181.740 854.589
22.375 181.708 854.439
23.366 181.778 854.769
24.336 181.698 854.392
25.323 181.739 854.586
26.290 181.641 854.124
27.275 181.666 854.240
28.255 181.660 854.214
29.237 181.667 854.243
30.233 181.759 854.676
31.227 181.831 855.018
32.201 181.790 854.823
33.178 181.766 854.709
34.150 181.711 854.454
35.133 181.724 854.515
36.108 181.691 854.359
37.085 181.673 854.273
38.073 181.704 854.420
39.044 181.657 854.198
40.033 181.696 854.384
41.009 181.671 854.265
41.997 181.705 854.425
42.957 181.614 853.997
43.951 181.669 854.256
44.923 181.635 854.095
45.936 181.761 854.687
46.894 181.671 854.263
47.885 181.709 854.442
48.828 181.569 853.782
49.816 181.596 853.911
50.809 181.641 854.125
51.823 181.756 854.666
52.771 181.642 854.128
53.775 181.720 854.496
54.730 181.632 854.080
55.730 181.695 854.378
56.693 181.639 854.112
57.691 181.694 854.371
58.648 181.618 854.015
59.649 181.681 854.313
60.612 181.626 854.054
61.618 181.701 854.407
62.561 181.590 853.882
63.559 181.642 854.126
64.514 181.567 853.774
65.534 181.679 854.300
66.509 181.663 854.224
67.518 181.737 854.574
68.463 181.642 854.128
69.466 181.700 854.399
70.411 181.606 853.959
71.416 181.669 854.256
72.353 181.559 853.738
73.376 181.664 854.232
74.308 181.544 853.666
75.325 181.632 854.081
76.272 181.553 853.710
77.311 181.690 854.355
78.277 181.656 854.193
79.282 181.712 854.458
80.206 181.581 853.840
81.240 181.701 854.406
82.168 181.585 853.859
83.190 181.674 854.279
84.122 181.569 853.783
85.152 181.676 854.287
86.099 181.605 853.952
87.105 181.657 854.197
88.035 181.551 853.701
89.066 181.656 854.191
89.994 181.549 853.691
91.045 181.690 854.352
91.960 181.559 853.739
92.990 181.658 854.201
93.914 181.547 853.680
94.966 181.684 854.326
95.885 181.567 853.776
96.922 181.673 854.276
97.849 181.572 853.800
98.875 181.656 854.193
99.814 181.579 853.834
100.828 181.640 854.120
101.783 181.595 853.905
102.784 181.631 854.077
103.729 181.568 853.779
104.745 181.630 854.069
105.699 181.584 853.853
106.700 181.619 854.020
107.654 181.575 853.810
108.673 181.638 854.110
109.626 181.594 853.900
110.621 181.617 854.011
111.606 181.624 854.043
112.587 181.624 854.044
113.559 181.610 853.977
114.507 181.558 853.735
115.508 181.591 853.888
116.497 181.605 853.952
117.472 181.595 853.909
118.434 181.568 853.781
119.423 181.581 853.841
120.371 181.533 853.613
121.404 181.610 853.979
122.334 181.535 853.626
123.360 181.603 853.944
124.299 181.542 853.659
125.337 181.627 854.056
126.242 181.517 853.542
127.305 181.635 854.097
128.183 181.490 853.414
129.262 181.630 854.071
130.162 181.517 853.541
131.251 181.668 854.250
132.144 181.547 853.679
133.177 181.619 854.020
134.092 181.530 853.603
135.130 181.608 853.969
136.062 181.543 853.661
137.124 181.652 854.173
138.001 181.515 853.529
139.038 181.589 853.879
139.938 181.484 853.386
141.011 181.604 853.949
141.920 181.513 853.522
142.958 181.587 853.868
143.867 181.497 853.446
144.907 181.571 853.795
145.836 181.508 853.496
146.828 181.523 853.568
147.819 181.535 853.626
148.784 181.517 853.541
149.765 181.518 853.547
150.761 181.537 853.634
151.743 181.539 853.644
152.710 181.523 853.570
153.683 181.515 853.533
154.696 181.554 853.714
155.663 181.539 853.644
156.646 181.542 853.658
157.599 181.510 853.508
158.567 181.496 853.443
159.554 181.504 853.480
160.559 181.533 853.617
161.555 181.551 853.700
162.551 181.568 853.781
163.476 181.507 853.492
164.469 181.521 853.558
165.402 181.470 853.317
166.412 181.502 853.470
167.393 181.503 853.474
168.389 181.520 853.556
169.344 181.493 853.429
170.329 181.499 853.454
171.347 181.540 853.648
172.261 181.470 853.319
173.258 181.488 853.404
174.182 181.429 853.128
175.249 181.520 853.553
176.174 181.463 853.286
177.224 181.535 853.625
178.084 181.413 853.051
179.201 181.552 853.703
180.059 181.429 853.124
181.171 181.561 853.746
181.994 181.405 853.011
183.081 181.511 853.513
183.980 181.432 853.138
185.069 181.538 853.639
185.964 181.455 853.248
187.000 181.510 853.505
187.929 181.461 853.276
188.938 181.489 853.406
189.904 181.475 853.342
190.873 181.465 853.296
191.877 181.488 853.402
192.799 181.433 853.145
193.834 181.485 853.391
194.826 181.496 853.443
195.818 181.508 853.496
196.742 181.456 853.254
197.748 181.480 853.367
198.693 181.448 853.214
199.747 181.516 853.535
200.703 181.494 853.430
201.685 181.496 853.440
202.599 181.437 853.163
203.639 181.491 853.416
204.570 181.447 853.211
205.577 181.471 853.325
206.513 181.433 853.143
207.583 181.511 853.513
208.426 181.393 852.955
209.560 181.526 853.583
210.452 181.450 853.224
211.466 181.480 853.364
212.356 181.403 853.002
213.492 181.536 853.629
214.335 181.420 853.085
215.399 181.491 853.418
216.294 181.419 853.081
217.350 181.484 853.383
218.265 181.429 853.127
219.285 181.463 853.287
220.263 181.461 853.277
221.209 181.434 853.150
222.216 181.456 853.253
223.136 181.408 853.026
224.222 181.493 853.429
225.057 181.377 852.881
226.130 181.452 853.235
227.008 181.371 852.852
228.064 181.432 853.141
229.024 181.416 853.065
230.056 181.458 853.261
230.994 181.425 853.106
232.019 181.461 853.275
232.897 181.381 852.899
234.002 181.478 853.357
234.836 181.366 852.830
235.922 181.448 853.215
236.780 181.354 852.776
237.871 181.440 853.178
238.783 181.388 852.934
239.819 181.432 853.139
240.719 181.371 852.854
241.755 181.414 853.055
242.706 181.392 852.954
243.643 181.361 852.805
244.625 181.363 852.814
245.557 181.328 852.650
246.676 181.431 853.134
247.541 181.347 852.740
248.591 181.399 852.983
249.445 181.308 852.556
250.602 181.437 853.161
251.437 181.332 852.670
252.630 181.486 853.392
253.451 181.372 852.858
254.451 181.387 852.928
255.405 181.369 852.844
256.418 181.392 852.954
257.398 181.393 852.956
258.347 181.371 852.855
259.307 181.358 852.794
260.335 181.392 852.954
261.221 181.328 852.649
262.272 181.377 852.882
263.201 181.342 852.718
264.208 181.362 852.810
265.248 181.403 853.003
266.139 181.342 852.719
267.197 181.396 852.973
268.059 181.317 852.597
269.138 181.385 852.917
270.000 181.305 852.545
271.109 181.392 852.953
271.913 181.275 852.403
273.074 181.396 852.972
273.828 181.247 852.271
274.928 181.328 852.649
275.854 181.292 852.483
276.923 181.352 852.762
277.844 181.313 852.582
278.809 181.304 852.539
279.781 181.300 852.518
280.815 181.336 852.688
281.768 181.319 852.607
282.767 181.331 852.667
283.732 181.323 852.626
284.672 181.298 852.509
285.684 181.318 852.606
286.595 181.276 852.405
287.746 181.384 852.916
288.484 181.232 852.201
289.687 181.373 852.864
290.451 181.239 852.233
291.651 181.376 852.878
292.499 181.295 852.496
293.551 181.340 852.707
294.459 181.296 852.502
295.457 181.308 852.558
296.426 181.302 852.528
297.422 181.312 852.576
298.449 181.341 852.715
299.402 181.325 852.639
300.340 181.301 852.524
301.308 181.294 852.492
302.281 181.291 852.478
303.205 181.258 852.321
304.321 181.340 852.707
-223.371 183.071 856.223
-222.308 183.005 855.915
-221.345 183.021 855.993
-220.538 183.168 856.676
-219.492 183.115 856.431
-218.475 183.087 856.301
-217.557 183.142 856.557
-216.556 183.128 856.490
-215.479 183.048 856.119
-214.510 183.060 856.172
-213.451 182.995 855.869
-212.470 182.996 855.876
-211.482 182.992 855.855
-210.565 183.050 856.125
-209.591 183.057 856.158
-208.615 183.064 856.190
-207.661 183.089 856.309
-206.633 183.050 856.124
-205.712 183.105 856.383
-204.602 182.992 855.853
-203.648 183.017 855.973
-202.630 182.986 855.825
-201.657 182.994 855.865
-200.735 183.050 856.125
-199.765 183.062 856.181
-198.816 183.093 856.328
-197.715 182.984 855.817
-196.812 183.059 856.167
-195.747 182.982 855.806
-194.814 183.029 856.026
-193.839 183.036 856.060
-192.880 183.059 856.168
-191.957 183.116 856.434
-190.874 183.021 855.990
-189.871 183.001 855.899
-188.830 182.945 855.633
-187.947 183.042 856.086
-186.887 182.967 855.736
-185.902 182.964 855.724
-184.876 182.921 855.522
-183.888 182.915 855.495
-182.965 182.975 855.773
-181.994 182.987 855.832
-181.039 183.015 855.961
-179.970 182.927 855.551
-179.051 182.992 855.853
-178.074 182.997 855.880
-177.078 182.984 855.817
-176.090 182.979 855.794
-175.091 182.961 855.712
-174.124 182.978 855.788
-173.101 182.936 855.592
-172.206 183.029 856.026
-171.170 182.971 855.757
-170.183 182.967 855.737
-169.161 182.924 855.539
-168.179 182.924 855.539
-167.214 182.944 855.629
-166.234 182.946 855.641
-165.269 182.965 855.731
-164.250 182.925 855.542
-163.315 182.979 855.793
-162.274 182.912 855.482
-161.345 182.973 855.764
-160.315 182.920 855.517
-159.326 182.912 855.479
-158.343 182.911 855.477
-157.350 182.898 855.416
-156.393 182.927 855.552
-155.387 182.900 855.422
-154.462 182.968 855.740
-153.436 182.916 855.499
-152.468 182.934 855.583
-151.449 182.889 855.372
-150.495 182.923 855.532
-149.488 182.893 855.392
-148.502 182.889 855.374
-147.514 182.882 855.338
-146.519 182.866 855.265
-145.564 182.900 855.423
-144.566 182.879 855.328
-143.644 182.956 855.688
-142.601 182.878 855.324
-141.643 182.910 855.469
-140.635 182.877 855.315
-139.678 182.910 855.470
-138.671 182.877 855.316
-137.686 182.873 855.296
-136.698 182.865 855.259
-135.693 182.834 855.114
-134.723 182.850 855.190
-133.725 182.828 855.087
-132.801 182.908 855.464
-131.788 182.866 855.264
-130.819 182.884 855.351
-129.794 182.824 855.068
-128.854 182.883 855.345
-127.860 182.865 855.262
-126.880 182.869 855.281
-125.905 182.879 855.328
-124.920 182.875 855.307
-123.959 182.906 855.454
-122.916 182.816 855.033
-121.985 182.892 855.389
-120.976 182.851 855.196
-120.027 182.901 855.430
-119.007 182.844 855.161
-118.025 182.844 855.161
-117.031 182.825 855.075
-116.066 182.851 855.196
-115.054 182.805 854.979
-114.052 182.771 854.820
-113.081 182.789 854.905
-112.060 182.725 854.605
-111.145 182.834 855.115
-110.134 182.786 854.891
-109.198 182.861 855.242
-108.175 182.793 854.922
-107.222 182.841 855.150
-106.192 182.758 854.761
-105.266 182.856 855.216
-104.274 182.837 855.131
-103.296 182.844 855.161
-102.322 182.858 855.227
-101.289 182.766 854.799
-100.342 182.830 855.097
-99.309 182.735 854.652
-98.365 182.805 854.978
-97.361 182.762 854.781
-96.410 182.822 855.059
-95.414 182.794 854.928
-94.485 182.896 855.405
-93.486 182.862 855.249
-92.497 182.849 855.188
-91.471 182.761 854.774
-90.484 182.750 854.721
-89.517 182.780 854.864
-88.529 182.767 854.800
-87.588 182.850 855.193
-86.573 182.782 854.870
-85.607 182.816 855.030
-84.588 182.734 854.646
-83.630 182.786 854.892
-82.607 182.693 854.458
-81.676 182.805 854.982
-80.663 182.736 854.658
-79.712 182.806 854.986
-78.686 182.703 854.502
-77.734 182.771 854.822
-76.739 182.740 854.677
-75.753 182.728 854.619
-74.790 182.773 854.829
-73.764 182.664 854.321
-72.834 182.791 854.913
-71.812 182.688 854.431
-70.860 182.763 854.783
-69.836 182.652 854.265
-68.904 182.781 854.869
-67.869 182.638 854.199
-66.932 182.759 854.766
-65.915 182.659 854.295
-64.971 182.763 854.785
-63.969 182.706 854.519
-62.997 182.732 854.640
-62.017 182.737 854.661
-61.032 182.724 854.602
-60.061 182.755 854.748
-59.054 182.678 854.385
-58.087 182.721 854.587
-57.079 182.637 854.193
-56.131 182.745 854.698
-55.103 182.589 853.972
-54.160 182.715 854.558
-53.127 182.539 853.735
-52.211 182.763 854.784
-51.201 182.660 854.302
-50.243 182.746 854.706
-49.228 182.619 854.109
-48.265 182.688 854.435
-47.278 182.667 854.333
-46.297 182.665 854.327
-45.317 182.668 854.337
-44.336 182.670 854.349
-43.362 182.699 854.484
-42.376 182.680 854.393
-41.408 182.733 854.644
-40.394 182.590 853.975
-39.445 182.734 854.646
-38.427 182.561 853.837
-37.483 182.737 854.661
-36.474 182.600 854.022
-35.535 182.813 855.016
-34.529 182.688 854.432
-33.548 182.686 854.425
-32.545 182.562 853.842
-31.572 182.607 854.054
-30.586 182.576 853.907
-29.620 182.661 854.307
-28.636 182.642 854.217
-27.657 182.660 854.300
-26.669 182.612 854.078
-25.687 182.603 854.034
-24.713 182.647 854.243
-23.729 182.625 854.139
-22.752 182.659 854.298
-21.758 182.542 853.752
-20.792 182.668 854.340
-19.802 182.592 853.984
-18.833 182.704 854.507
-17.839 182.571 853.885
-16.867 182.663 854.317
-15.876 182.542 853.750
-14.905 182.666 854.328
-13.916 182.562 853.841
-12.946 182.698 854.481
-11.954 182.541 853.745
-10.980 182.639 854.204
-9.992 182.515 853.623
-9.018 182.645 854.231
-8.034 182.560 853.833
-7.056 182.626 854.145
-6.074 182.611 854.070
-5.094 182.617 854.099
-4.112 182.581 853.931
-3.132 182.606 854.050
-2.152 182.600 854.020
-1.171 182.581 853.934
-0.190 182.625 854.138
0.790 182.568 853.871
1.771 182.626 854.143
2.751 182.532 853.704
3.733 182.645 854.233
4.711 182.520 853.648
5.694 182.616 854.096
6.671 182.515 853.626
7.655 182.610 854.066
8.632 182.529 853.688
9.618 182.639 854.202
10.594 182.550 853.786
11.579 182.628 854.151
12.552 182.512 853.609
13.540 182.618 854.104
14.511 182.495 853.529
15.499 182.592 853.984
16.472 182.500 853.553
17.462 182.611 854.073
18.434 182.519 853.644
19.422 182.594 853.993
20.390 182.480 853.462
21.382 182.582 853.939
22.350 182.479 853.454
23.339 182.555 853.811
24.315 182.516 853.628
25.304 182.584 853.945
26.273 182.504 853.572
27.258 182.538 853.731
28.226 182.455 853.344
29.215 182.513 853.612
30.198 182.531 853.698
31.177 182.521 853.650
32.168 182.584 853.948
33.136 182.513 853.614
34.121 182.539 853.737
35.092 182.492 853.517
36.071 182.487 853.494
37.053 182.498 853.543
38.039 182.523 853.663
39.014 182.499 853.550
40.002 182.535 853.718
40.970 182.483 853.473
41.964 182.543 853.754
42.922 182.446 853.301
43.921 182.528 853.686
44.887 182.468 853.403
45.890 182.559 853.830
46.855 182.502 853.562
47.839 182.517 853.632
48.800 182.443 853.287
49.780 182.445 853.297
50.753 182.421 853.183
51.769 182.547 853.774
52.726 182.467 853.400
53.719 182.513 853.613
54.685 182.465 853.391
55.680 182.514 853.620
56.633 182.425 853.203
57.634 182.493 853.520
58.600 182.449 853.317
59.600 182.510 853.603
60.555 182.437 853.257
61.554 182.493 853.523
62.515 182.436 853.255
63.516 182.496 853.536
64.469 182.421 853.182
65.469 182.477 853.447
66.420 182.398 853.077
67.425 182.466 853.395
68.385 182.415 853.154
69.394 182.490 853.509
70.345 182.415 853.157
71.354 182.490 853.509
72.309 182.427 853.214
73.315 182.494 853.525
74.246 182.372 852.957
75.253 182.439 853.267
76.202 182.365 852.922
77.224 182.466 853.394
78.193 182.440 853.274
79.195 182.493 853.519
80.135 182.400 853.086
81.159 182.500 853.554
82.104 182.424 853.197
83.114 182.488 853.500
84.052 182.399 853.080
85.075 182.491 853.513
86.006 182.387 853.025
87.028 182.477 853.445
87.971 182.400 853.085
88.996 182.493 853.523
89.940 182.419 853.177
90.951 182.481 853.466
91.875 182.370 852.948
92.893 182.447 853.304
93.838 182.379 852.986
94.872 182.484 853.479
95.811 182.407 853.118
96.826 182.473 853.428
97.758 182.383 853.005
98.758 182.420 853.181
99.725 182.398 853.079
100.724 182.433 853.241
101.664 182.361 852.905
102.686 182.438 853.263
103.647 182.405 853.107
104.647 182.440 853.274
105.596 182.388 853.028
106.593 182.416 853.162
107.560 182.396 853.065
108.537 182.391 853.046
109.531 182.416 853.159
110.510 182.415 853.154
111.467 182.378 852.983
112.475 182.424 853.199
113.463 182.436 853.255
114.405 182.377 852.979
115.396 182.395 853.060
116.348 182.351 852.857
117.355 182.395 853.061
118.333 182.392 853.049
119.313 182.393 853.052
120.279 182.373 852.960
121.288 182.417 853.164
122.241 182.377 852.979
123.246 182.415 853.155
124.182 182.351 852.858
125.215 182.430 853.225
126.149 182.363 852.915
127.155 182.402 853.093
128.087 182.333 852.773
129.124 182.415 853.156
130.061 182.355 852.875
131.110 182.452 853.328
132.028 182.368 852.934
133.067 182.449 853.315
133.964 182.335 852.783
134.994 182.405 853.110
135.931 182.348 852.841
136.958 182.410 853.134
137.869 182.320 852.711
138.907 182.397 853.072
139.808 182.295 852.595
140.871 182.404 853.103
141.782 182.315 852.689
142.807 182.374 852.966
143.727 182.299 852.612
144.764 182.371 852.952
145.713 182.334 852.776
146.717 182.364 852.918
147.665 182.325 852.737
148.661 182.347 852.836
149.619 182.321 852.716
150.594 182.315 852.690
151.584 182.329 852.752
152.580 182.348 852.844
153.537 182.323 852.725
154.527 182.336 852.785
155.535 182.368 852.938
156.537 182.396 853.066
157.469 182.340 852.805
158.438 182.329 852.752
159.383 182.290 852.570
160.403 182.335 852.783
161.381 182.334 852.779
162.369 182.345 852.828
163.312 182.304 852.635
164.288 182.300 852.618
165.240 182.270 852.479
166.213 182.264 852.452
167.231 182.307 852.650
168.232 182.330 852.761
169.259 182.382 853.003
170.215 182.357 852.884
171.186 182.348 852.845
172.098 182.277 852.509
173.138 182.341 852.811
174.072 182.294 852.591
175.111 182.356 852.880
176.005 182.268 852.469
177.073 182.360 852.898
177.956 182.261 852.438
179.017 182.345 852.827
179.910 182.257 852.417
180.974 182.343 852.820
181.852 182.242 852.345
182.886 182.297 852.604
183.831 182.263 852.445
184.889 182.341 852.812
185.797 182.271 852.484
186.810 182.305 852.641
187.761 182.277 852.511
188.752 182.289 852.567
189.717 182.275 852.502
190.716 182.294 852.592
191.676 182.277 852.509
192.643 182.265 852.456
193.655 182.297 852.602
194.589 182.255 852.407
195.632 182.314 852.684
196.583 182.288 852.563
197.563 182.289 852.567
198.509 182.259 852.426
199.516 182.285 852.546
200.454 182.248 852.374
201.473 182.284 852.542
202.404 182.240 852.339
203.423 182.277 852.510
204.358 182.238 852.327
205.395 182.290 852.570
206.278 182.204 852.171
207.405 182.335 852.782
208.239 182.208 852.189
209.307 182.286 852.554
210.219 182.228 852.279
211.270 182.290 852.573
212.149 182.205 852.172
213.273 182.329 852.753
214.169 182.258 852.423
215.173 182.280 852.523
216.092 182.229 852.287
217.152 182.297 852.604
218.071 182.247 852.369
219.037 182.236 852.319
220.042 182.258 852.422
220.965 182.212 852.209
221.994 182.253 852.400
222.958 182.241 852.343
223.972 182.271 852.481
224.872 182.207 852.182
225.919 182.261 852.436
226.820 182.199 852.147
227.856 182.245 852.360
228.802 182.219 852.240
229.834 182.262 852.438
230.730 182.196 852.130
231.774 182.248 852.373
232.696 182.203 852.163
233.776 182.282 852.533
234.619 182.176 852.039
235.702 182.257 852.419
236.569 182.171 852.016
237.643 182.245 852.359
238.559 182.197 852.135
239.602 182.246 852.365
240.554 182.225 852.269
241.524 182.219 852.239
242.496 182.214 852.216
243.423 182.176 852.036
244.433 182.199 852.147
245.362 182.162 851.975
246.462 182.252 852.394
247.325 182.167 851.997
248.379 182.223 852.256
249.241 182.138 851.859
250.398 182.268 852.467
251.212 182.148 851.906
252.364 182.273 852.493
253.178 182.155 851.941
254.231 182.209 852.190
255.164 182.176 852.038
256.179 182.202 852.161
257.123 182.178 852.045
258.134 182.201 852.154
259.101 182.192 852.115
260.115 182.217 852.231
260.994 182.148 851.907
262.011 182.175 852.031
262.948 182.146 851.898
263.957 182.167 851.998
264.985 182.202 852.159
265.907 182.163 851.978
266.968 182.219 852.242
267.839 182.146 851.898
268.892 182.197 852.137
269.748 182.114 851.750
270.845 182.194 852.123
271.659 182.084 851.607
272.823 182.209 852.190
273.639 182.100 851.683
274.730 182.175 852.034
275.737 182.194 852.122
276.743 182.212 852.206
277.592 182.127 851.808
278.582 182.135 851.846
279.534 182.118 851.768
280.565 182.152 851.926
281.520 182.138 851.858
282.495 182.135 851.848
283.521 182.166 851.991
284.409 182.108 851.719
285.456 182.152 851.927
286.329 182.085 851.613
287.467 182.187 852.088
288.252 182.064 851.517
289.375 182.156 851.945
290.174 182.044 851.419
291.354 182.170 852.010
292.227 182.104 851.703
293.291 182.158 851.953
294.198 182.114 851.748
295.200 182.128 851.815
296.110 182.087 851.620
297.207 182.160 851.963
298.128 182.125 851.797
299.110 182.127 851.809
300.090 182.128 851.815
300.997 182.085 851.614
302.007 182.105 851.704
302.887 182.046 851.428
304.091 182.181 852.064
-223.105 183.835 855.204
-222.177 183.880 855.412
-221.217 183.898 855.497
-220.232 183.896 855.487
-219.288 183.928 855.636
-218.291 183.916 855.579
-217.348 183.949 855.733
-216.295 183.890 855.459
-215.283 183.864 855.340
-214.263 183.832 855.190
-213.215 183.775 854.923
-212.293 183.826 855.162
-211.279 183.798 855.032
-210.342 183.837 855.216
-209.361 183.839 855.221
-208.424 183.878 855.404
-207.446 183.882 855.424
-206.472 183.889 855.457
-205.532 183.927 855.634
-204.436 183.825 855.157
-203.487 183.855 855.296
-202.441 183.797 855.027
-201.489 183.824 855.154
-200.532 183.846 855.257
-199.578 183.872 855.378
-198.591 183.868 855.358
-197.531 183.796 855.024
-196.631 183.872 855.379
-195.558 183.787 854.981
-194.599 183.809 855.083
-193.564 183.758 854.845
-192.658 183.830 855.180
-191.711 183.863 855.337
-190.657 183.795 855.017
-189.640 183.760 854.857
-188.641 183.744 854.779
-187.755 183.837 855.214
-186.718 183.783 854.962
-185.734 183.781 854.952
-184.698 183.727 854.700
-183.785 183.795 855.020
-182.804 183.796 855.022
-181.846 183.819 855.131
-180.869 183.825 855.156
-179.822 183.758 854.846
-178.838 183.756 854.837
-177.855 183.754 854.827
-176.907 183.789 854.992
-175.856 183.717 854.654
-174.953 183.799 855.036
-173.940 183.766 854.885
-172.933 183.739 854.757
-172.027 183.820 855.137
-170.989 183.760 854.856
-170.035 183.789 854.992
-168.978 183.708 854.613
-168.032 183.746 854.790
-167.005 183.696 854.559
-166.091 183.771 854.906
-165.092 183.751 854.814
-164.134 183.777 854.937
-163.159 183.785 854.974
-162.123 183.724 854.687
-161.162 183.747 854.797
-160.151 183.713 854.636
-159.185 183.731 854.719
-158.165 183.686 854.512
-157.224 183.733 854.729
-156.245 183.736 854.743
-155.250 183.720 854.671
-154.330 183.793 855.010
-153.280 183.712 854.633
-152.316 183.732 854.727
-151.319 183.713 854.638
-150.368 183.751 854.812
-149.333 183.685 854.508
-148.370 183.708 854.612
-147.397 183.718 854.659
-146.417 183.720 854.669
-145.432 183.715 854.648
-144.442 183.704 854.596
-143.516 183.775 854.924
-142.463 183.682 854.495
-141.505 183.713 854.636
-140.511 183.696 854.560
-139.561 183.737 854.750
-138.544 183.691 854.533
-137.591 183.728 854.707
-136.567 183.671 854.440
-135.595 183.684 854.502
-134.635 183.712 854.633
-133.607 183.648 854.337
-132.673 183.714 854.641
-131.661 183.670 854.439
-130.707 183.709 854.617
-129.682 183.646 854.327
-128.763 183.735 854.739
-127.753 183.695 854.552
-126.792 183.724 854.688
-125.742 183.623 854.220
-124.775 183.644 854.316
-123.785 183.630 854.253
-122.784 183.600 854.113
-121.848 183.668 854.428
-120.834 183.618 854.195
-119.888 183.672 854.445
-118.861 183.600 854.111
-117.914 183.652 854.354
-116.900 183.602 854.120
-115.953 183.654 854.363
-114.911 183.557 853.909
-113.937 183.567 853.959
-112.962 183.578 854.007
-111.957 183.537 853.818
-111.079 183.707 854.609
-110.013 183.565 853.947
-109.094 183.669 854.434
-108.077 183.608 854.148
-107.121 183.650 854.342
-106.108 183.595 854.089
-105.154 183.641 854.300
-104.153 183.606 854.139
-103.202 183.660 854.389
-102.202 183.625 854.230
-101.202 183.590 854.065
-100.241 183.626 854.234
-99.221 183.554 853.900
-98.282 183.632 854.259
-97.250 183.536 853.814
-96.333 183.657 854.375
-95.298 183.552 853.888
-94.420 183.751 854.813
-93.388 183.653 854.357
-92.406 183.651 854.350
-91.386 183.572 853.982
-90.406 183.573 853.986
-89.429 183.581 854.022
-88.459 183.602 854.122
-87.501 183.650 854.344
-86.488 183.583 854.031
-85.547 183.668 854.430
-84.531 183.593 854.077
-83.586 183.671 854.440
-82.535 183.516 853.719
-81.621 183.665 854.416
-80.605 183.585 854.040
-79.631 183.600 854.111
-78.600 183.483 853.566
-77.651 183.557 853.912
-76.662 183.536 853.814
-75.692 183.560 853.927
-74.713 183.565 853.949
-73.707 183.501 853.650
-72.771 183.615 854.180
-71.744 183.496 853.629
-70.811 183.618 854.194
-69.778 183.482 853.562
-68.852 183.624 854.222
-67.815 183.474 853.524
-66.876 183.586 854.046
-65.865 183.501 853.650
-64.914 183.585 854.044
-63.913 183.527 853.771
-62.944 183.559 853.920
-61.948 183.513 853.708
-60.972 183.526 853.767
-59.996 183.538 853.825
-59.000 183.492 853.609
-58.036 183.541 853.837
-57.038 183.485 853.578
-56.093 183.599 854.108
-55.037 183.349 852.941
-54.095 183.475 853.531
-53.096 183.411 853.232
-52.170 183.599 854.107
-51.153 183.472 853.514
-50.187 183.522 853.747
-49.185 183.441 853.372
-48.223 183.509 853.687
-47.228 183.452 853.424
-46.259 183.494 853.618
-45.279 183.497 853.632
-44.295 183.482 853.561
-43.323 183.513 853.708
-42.327 183.445 853.389
-41.358 183.496 853.626
-40.359 183.410 853.226
-39.401 183.510 853.691
-38.401 183.416 853.254
-37.451 183.560 853.926
-36.442 183.420 853.276
-35.508 183.655 854.366
-34.506 183.545 853.854
-33.512 183.472 853.518
-32.520 183.401 853.187
-31.538 183.391 853.139
-30.562 183.412 853.237
-29.589 183.455 853.436
-28.609 183.455 853.435
-27.629 183.450 853.414
-26.641 183.397 853.168
-25.667 183.436 853.351
-24.694 183.487 853.586
-23.707 183.434 853.341
-22.735 183.495 853.624
-21.740 183.378 853.080
-20.770 183.459 853.455
-19.786 183.421 853.280
-18.817 183.529 853.782
-17.823 183.384 853.106
-16.849 183.451 853.418
-15.863 183.380 853.087
-14.894 183.507 853.677
-13.905 183.387 853.122
-12.933 183.498 853.636
-11.943 183.346 852.928
-10.971 183.473 853.521
-9.984 183.356 852.976
-9.009 183.446 853.394
-8.026 183.360 852.995
-7.049 183.427 853.305
-6.069 183.411 853.232
-5.089 183.432 853.328
-4.108 183.360 852.994
-3.128 183.361 852.998
-2.149 183.356 852.977
-1.170 183.391 853.138
-0.190 183.454 853.431
0.790 183.388 853.127
1.769 183.410 853.226
2.748 183.350 852.949
3.729 183.416 853.255
4.707 183.336 852.884
5.688 183.398 853.172
6.665 183.318 852.802
7.648 183.405 853.205
8.624 183.346 852.929
9.610 183.458 853.453
10.585 183.369 853.038
11.569 183.450 853.415
12.541 183.337 852.887
13.525 183.394 853.152
14.498 183.315 852.787
15.486 183.413 853.240
16.459 183.338 852.893
17.443 183.383 853.101
18.415 183.314 852.779
19.404 183.402 853.188
20.372 183.300 852.715
21.359 183.370 853.044
22.330 183.296 852.699
23.320 183.384 853.105
24.289 183.306 852.743
25.282 183.404 853.197
26.249 183.318 852.797
27.234 183.354 852.966
