87.652000 -15.057000 471.764000
88.065000 -15.035000 471.077000
88.448000 -15.009000 470.236000
88.959000 -15.004000 470.085000
89.360000 -14.980000 469.352000
89.760000 -14.957000 468.630000
90.182000 -14.938000 468.028000
90.663000 -14.929000 467.734000
91.058000 -14.906000 467.008000
91.450000 -14.882000 466.268000
91.898000 -14.868000 465.829000
92.321000 -14.850000 465.262000
92.729000 -14.830000 464.631000
93.126000 -14.808000 463.952000
93.591000 -14.797000 463.614000
93.970000 -14.773000 462.858000
94.394000 -14.756000 462.334000
94.777000 -14.733000 461.613000
95.223000 -14.720000 461.204000
95.591000 -14.696000 460.428000
96.020000 -14.680000 459.951000
96.385000 -14.656000 459.174000
96.828000 -14.643000 458.772000
97.193000 -14.618000 458.009000
97.628000 -14.605000 457.585000
97.983000 -14.579000 456.792000
98.409000 -14.565000 456.332000
98.776000 -14.542000 455.612000
99.183000 -14.525000 455.078000
99.529000 -14.499000 454.270000
99.928000 -14.481000 453.714000
100.324000 -14.463000 453.150000
100.746000 -14.449000 452.708000
101.099000 -14.425000 451.962000
101.501000 -14.409000 451.440000
101.953000 -14.399000 451.147000
102.297000 -14.375000 450.383000
102.652000 -14.352000 449.670000
103.053000 -14.336000 449.170000
103.502000 -14.327000 448.879000
103.829000 -14.301000 448.068000
104.196000 -14.281000 447.431000
104.636000 -14.271000 447.118000
105.050000 -14.257000 446.694000
105.347000 -14.228000 445.779000
105.759000 -14.215000 445.359000
106.203000 -14.206000 445.077000
106.592000 -14.189000 444.568000
106.890000 -14.161000 443.689000
107.520000 -14.177000 444.183000
107.848000 -14.153000 443.436000
108.691000 -14.197000 444.802000
109.159000 -14.191000 444.629000
109.973000 -14.231000 445.858000
110.471000 -14.229000 445.804000
111.229000 -14.260000 446.792000
111.759000 -14.262000 446.858000
112.421000 -14.281000 447.453000
113.056000 -14.297000 447.931000
113.666000 -14.309000 448.310000
114.270000 -14.320000 448.657000
114.904000 -14.335000 449.125000
115.579000 -14.354000 449.742000
120.839000 -14.616000 457.933000
121.187000 -14.595000 457.263000
122.173000 -14.650000 458.993000
122.543000 -14.631000 458.406000
123.440000 -14.675000 459.787000
123.912000 -14.669000 459.581000
124.775000 -14.708000 460.820000
125.276000 -14.705000 460.716000
126.055000 -14.734000 461.630000
126.644000 -14.741000 461.846000
127.344000 -14.760000 462.461000
127.989000 -14.774000 462.875000
128.675000 -14.791000 463.429000
129.334000 -14.806000 463.884000
129.989000 -14.820000 464.322000
130.711000 -14.841000 464.995000
131.283000 -14.846000 465.130000
132.040000 -14.871000 465.915000
132.595000 -14.873000 465.986000
133.456000 -14.909000 467.126000
133.952000 -14.905000 466.985000
134.825000 -14.942000 468.156000
135.312000 -14.937000 467.979000
136.184000 -14.973000 469.132000
136.667000 -14.967000 468.942000
137.680000 -15.019000 470.563000
137.979000 -14.993000 469.742000
138.941000 -15.039000 471.174000
139.432000 -15.033000 471.005000
59.118000 -15.715000 510.733000
59.626000 -15.694000 510.060000
60.119000 -15.670000 509.275000
60.641000 -15.653000 508.743000
61.122000 -15.627000 507.889000
61.643000 -15.611000 507.378000
62.124000 -15.586000 506.547000
62.628000 -15.567000 505.922000
63.113000 -15.543000 505.153000
63.633000 -15.528000 504.680000
64.094000 -15.500000 503.742000
64.586000 -15.479000 503.069000
65.080000 -15.459000 502.426000
65.593000 -15.444000 501.934000
66.049000 -15.416000 501.024000
66.558000 -15.401000 500.527000
67.053000 -15.382000 499.928000
67.526000 -15.359000 499.182000
67.973000 -15.331000 498.262000
68.504000 -15.322000 497.957000
68.980000 -15.300000 497.270000
69.434000 -15.275000 496.432000
69.886000 -15.249000 495.596000
70.414000 -15.240000 495.306000
70.867000 -15.215000 494.500000
71.332000 -15.193000 493.790000
71.808000 -15.174000 493.162000
72.301000 -15.159000 492.665000
72.745000 -15.133000 491.840000
73.201000 -15.111000 491.113000
73.694000 -15.096000 490.641000
74.162000 -15.077000 490.006000
74.610000 -15.054000 489.254000
75.075000 -15.035000 488.628000
75.547000 -15.017000 488.053000
76.002000 -14.996000 487.373000
76.459000 -14.976000 486.723000
76.928000 -14.958000 486.152000
77.394000 -14.941000 485.577000
77.832000 -14.918000 484.827000
78.294000 -14.900000 484.245000
78.734000 -14.878000 483.533000
79.198000 -14.861000 482.976000
79.648000 -14.841000 482.344000
80.119000 -14.826000 481.841000
80.546000 -14.803000 481.088000
81.022000 -14.789000 480.634000
81.452000 -14.767000 479.921000
81.902000 -14.748000 479.328000
82.307000 -14.722000 478.480000
82.834000 -14.718000 478.354000
83.226000 -14.691000 477.448000
83.662000 -14.671000 476.811000
84.077000 -14.648000 476.061000
84.597000 -14.643000 475.908000
84.981000 -14.615000 475.001000
85.409000 -14.595000 474.351000
85.874000 -14.582000 473.909000
86.335000 -14.568000 473.456000
86.710000 -14.539000 472.533000
87.170000 -14.526000 472.086000
87.641000 -14.514000 471.705000
88.051000 -14.492000 471.001000
88.431000 -14.466000 470.143000
88.915000 -14.457000 469.851000
89.338000 -14.438000 469.240000
89.741000 -14.416000 468.529000
90.148000 -14.395000 467.848000
90.644000 -14.389000 467.635000
91.036000 -14.366000 466.894000
91.424000 -14.343000 466.139000
91.858000 -14.327000 465.624000
92.294000 -14.311000 465.126000
92.699000 -14.292000 464.482000
93.077000 -14.268000 463.705000
93.532000 -14.256000 463.324000
93.923000 -14.235000 462.630000
94.350000 -14.219000 462.118000
94.725000 -14.196000 461.361000
95.174000 -14.183000 460.968000
95.542000 -14.160000 460.192000
95.952000 -14.142000 459.626000
96.300000 -14.116000 458.768000
96.738000 -14.103000 458.349000
97.117000 -14.081000 457.652000
97.555000 -14.069000 457.243000
97.923000 -14.046000 456.513000
98.336000 -14.030000 455.994000
98.708000 -14.009000 455.295000
99.144000 -13.997000 454.897000
99.495000 -13.973000 454.117000
99.894000 -13.955000 453.558000
100.284000 -13.937000 452.971000
100.715000 -13.925000 452.567000
101.072000 -13.903000 451.842000
101.464000 -13.885000 451.277000
101.909000 -13.875000 450.954000
102.278000 -13.855000 450.297000
102.640000 -13.834000 449.619000
103.032000 -13.818000 449.077000
103.488000 -13.810000 448.818000
103.815000 -13.785000 448.006000
104.179000 -13.765000 447.359000
104.578000 -13.750000 446.869000
105.028000 -13.741000 446.601000
105.327000 -13.714000 445.695000
105.698000 -13.695000 445.105000
106.137000 -13.686000 444.802000
106.575000 -13.677000 444.497000
106.872000 -13.649000 443.610000
107.504000 -13.665000 444.117000
107.835000 -13.642000 443.382000
108.659000 -13.682000 444.672000
109.121000 -13.676000 444.473000
109.949000 -13.715000 445.759000
110.454000 -13.715000 445.735000
111.211000 -13.745000 446.716000
111.724000 -13.745000 446.717000
112.415000 -13.767000 447.427000
113.041000 -13.781000 447.873000
113.655000 -13.793000 448.264000
114.263000 -13.804000 448.630000
114.886000 -13.817000 449.053000
115.576000 -13.838000 449.730000
124.713000 -14.172000 460.588000
125.232000 -14.171000 460.554000
126.027000 -14.201000 461.528000
126.580000 -14.203000 461.613000
127.326000 -14.227000 462.395000
127.964000 -14.239000 462.782000
128.657000 -14.257000 463.366000
129.316000 -14.271000 463.821000
129.957000 -14.283000 464.210000
130.681000 -14.304000 464.887000
131.262000 -14.309000 465.056000
132.021000 -14.334000 465.847000
132.565000 -14.335000 465.881000
133.421000 -14.369000 467.005000
133.929000 -14.366000 466.906000
134.783000 -14.400000 468.008000
135.229000 -14.390000 467.693000
136.151000 -14.431000 469.018000
136.627000 -14.425000 468.804000
137.575000 -14.468000 470.204000
137.974000 -14.453000 469.724000
138.921000 -14.495000 471.107000
139.400000 -14.489000 470.897000
59.098000 -15.123000 510.560000
59.611000 -15.104000 509.928000
60.103000 -15.081000 509.139000
60.618000 -15.064000 508.554000
61.103000 -15.039000 507.732000
61.624000 -15.024000 507.222000
62.105000 -15.000000 506.394000
62.610000 -14.981000 505.772000
63.093000 -14.958000 504.992000
63.617000 -14.945000 504.548000
64.076000 -14.917000 503.605000
64.567000 -14.897000 502.923000
65.060000 -14.877000 502.269000
65.574000 -14.863000 501.794000
66.028000 -14.836000 500.869000
66.530000 -14.820000 500.314000
67.027000 -14.803000 499.740000
67.505000 -14.781000 499.027000
67.959000 -14.756000 498.155000
68.480000 -14.745000 497.788000
68.966000 -14.726000 497.168000
69.420000 -14.702000 496.333000
69.862000 -14.675000 495.428000
70.389000 -14.666000 495.133000
70.849000 -14.644000 494.374000
71.312000 -14.622000 493.646000
71.787000 -14.603000 493.017000
72.284000 -14.590000 492.549000
72.727000 -14.565000 491.716000
73.187000 -14.544000 491.014000
73.676000 -14.529000 490.520000
74.148000 -14.512000 489.915000
74.593000 -14.489000 489.145000
75.050000 -14.469000 488.464000
75.521000 -14.451000 487.881000
75.977000 -14.432000 487.216000
76.444000 -14.414000 486.624000
76.908000 -14.396000 486.027000
77.374000 -14.379000 485.450000
77.812000 -14.357000 484.705000
78.273000 -14.340000 484.116000
78.719000 -14.320000 483.438000
79.181000 -14.303000 482.870000
79.630000 -14.284000 482.232000
80.102000 -14.270000 481.743000
80.524000 -14.246000 480.956000
81.001000 -14.233000 480.512000
81.438000 -14.213000 479.833000
81.887000 -14.195000 479.239000
82.285000 -14.169000 478.355000
82.808000 -14.165000 478.202000
83.213000 -14.140000 477.373000
83.648000 -14.121000 476.731000
84.047000 -14.096000 475.889000
84.580000 -14.094000 475.815000
84.966000 -14.067000 474.919000
85.391000 -14.047000 474.247000
85.839000 -14.032000 473.718000
86.320000 -14.021000 473.370000
86.696000 -13.994000 472.455000
87.141000 -13.979000 471.929000
87.629000 -13.970000 471.638000
88.033000 -13.949000 470.906000
88.410000 -13.923000 470.031000
88.870000 -13.910000 469.614000
89.315000 -13.896000 469.119000
89.723000 -13.875000 468.436000
90.120000 -13.854000 467.706000
90.594000 -13.844000 467.377000
91.006000 -13.825000 466.738000
91.392000 -13.802000 465.976000
91.803000 -13.784000 465.345000
92.247000 -13.770000 464.889000
92.659000 -13.752000 464.281000
93.036000 -13.729000 463.503000
93.468000 -13.715000 463.007000
93.880000 -13.697000 462.414000
94.298000 -13.681000 461.861000
94.675000 -13.659000 461.116000
95.117000 -13.646000 460.691000
95.493000 -13.624000 459.958000
95.903000 -13.607000 459.390000
96.252000 -13.582000 458.540000
96.705000 -13.572000 458.191000
97.067000 -13.549000 457.417000
97.523000 -13.539000 457.091000
97.885000 -13.517000 456.332000
98.307000 -13.503000 455.860000
98.678000 -13.482000 455.159000
99.128000 -13.472000 454.822000
99.480000 -13.449000 454.049000
99.881000 -13.433000 453.500000
100.265000 -13.415000 452.884000
100.701000 -13.403000 452.504000
101.058000 -13.382000 451.780000
101.440000 -13.364000 451.172000
101.879000 -13.354000 450.821000
102.263000 -13.336000 450.233000
102.626000 -13.316000 449.555000
102.990000 -13.296000 448.894000
103.471000 -13.292000 448.743000
103.797000 -13.268000 447.929000
104.160000 -13.249000 447.276000
104.514000 -13.228000 446.596000
105.007000 -13.226000 446.511000
105.313000 -13.200000 445.638000
105.682000 -13.182000 445.037000
106.077000 -13.168000 444.551000
106.563000 -13.165000 444.447000
106.865000 -13.139000 443.582000
107.492000 -13.154000 444.068000
107.826000 -13.132000 443.347000
108.644000 -13.170000 444.609000
109.084000 -13.161000 444.321000
109.863000 -13.193000 445.412000
110.432000 -13.200000 445.643000
111.180000 -13.228000 446.593000
111.694000 -13.228000 446.597000
112.396000 -13.251000 447.350000
113.028000 -13.265000 447.821000
113.641000 -13.276000 448.209000
114.259000 -13.288000 448.617000
114.894000 -13.302000 449.084000
115.589000 -13.323000 449.783000
116.117000 -13.324000 449.826000
116.890000 -13.353000 450.815000
117.419000 -13.355000 450.859000
118.225000 -13.387000 451.960000
124.631000 -13.634000 460.288000
125.178000 -13.636000 460.353000
126.014000 -13.669000 461.481000
126.584000 -13.674000 461.626000
127.303000 -13.694000 462.311000
127.959000 -13.707000 462.765000
128.620000 -13.721000 463.233000
129.295000 -13.736000 463.744000
129.948000 -13.749000 464.177000
130.671000 -13.769000 464.852000
131.243000 -13.773000 464.988000
132.003000 -13.797000 465.786000
132.546000 -13.798000 465.812000
133.398000 -13.831000 466.925000
133.886000 -13.826000 466.755000
134.763000 -13.861000 467.938000
135.193000 -13.850000 467.567000
136.124000 -13.890000 468.927000
136.584000 -13.882000 468.659000
137.439000 -13.914000 469.738000
137.993000 -13.915000 469.789000
138.909000 -13.953000 471.067000
139.369000 -13.945000 470.793000
59.077000 -14.532000 510.375000
59.595000 -14.515000 509.794000
60.087000 -14.492000 508.998000
60.598000 -14.475000 508.385000
61.085000 -14.452000 507.580000
61.604000 -14.437000 507.053000
62.088000 -14.414000 506.254000
62.588000 -14.395000 505.596000
63.074000 -14.374000 504.841000
63.597000 -14.361000 504.393000
64.062000 -14.336000 503.496000
64.551000 -14.316000 502.804000
65.043000 -14.297000 502.140000
65.555000 -14.283000 501.646000
66.013000 -14.258000 500.755000
66.506000 -14.240000 500.136000
67.002000 -14.223000 499.548000
67.487000 -14.205000 498.897000
67.943000 -14.180000 498.040000
68.453000 -14.168000 497.592000
68.947000 -14.152000 497.031000
69.401000 -14.128000 496.201000
69.843000 -14.102000 495.291000
70.361000 -14.092000 494.937000
70.838000 -14.074000 494.297000
71.296000 -14.052000 493.538000
71.759000 -14.032000 492.825000
72.258000 -14.019000 492.370000
72.710000 -13.997000 491.601000
73.169000 -13.977000 490.895000
73.654000 -13.962000 490.375000
74.131000 -13.946000 489.806000
74.575000 -13.924000 489.024000
75.031000 -13.904000 488.342000
75.503000 -13.888000 487.768000
75.959000 -13.869000 487.101000
76.421000 -13.851000 486.482000
76.886000 -13.834000 485.890000
77.350000 -13.818000 485.301000
77.791000 -13.797000 484.572000
78.254000 -13.781000 483.997000
78.696000 -13.761000 483.298000
79.162000 -13.745000 482.759000
79.612000 -13.727000 482.126000
80.085000 -13.713000 481.638000
80.501000 -13.690000 480.824000
80.973000 -13.676000 480.343000
81.415000 -13.658000 479.698000
81.871000 -13.642000 479.148000
82.271000 -13.617000 478.271000
82.778000 -13.611000 478.028000
83.195000 -13.589000 477.271000
83.631000 -13.571000 476.635000
84.016000 -13.545000 475.715000
84.564000 -13.545000 475.727000
84.950000 -13.520000 474.830000
85.369000 -13.500000 474.129000
85.794000 -13.481000 473.468000
86.293000 -13.474000 473.222000
86.673000 -13.448000 472.331000
87.090000 -13.429000 471.656000
87.595000 -13.423000 471.456000
88.012000 -13.405000 470.791000
88.385000 -13.379000 469.900000
88.819000 -13.363000 469.343000
89.289000 -13.353000 468.983000
89.695000 -13.333000 468.289000
90.090000 -13.312000 467.548000
90.530000 -13.298000 467.048000
90.962000 -13.283000 466.513000
91.350000 -13.261000 465.760000
91.751000 -13.242000 465.081000
92.190000 -13.228000 464.603000
92.616000 -13.213000 464.066000
92.989000 -13.190000 463.268000
93.394000 -13.172000 462.641000
93.820000 -13.158000 462.119000
94.241000 -13.142000 461.584000
94.623000 -13.122000 460.863000
95.051000 -13.108000 460.372000
95.440000 -13.089000 459.698000
95.870000 -13.075000 459.233000
96.224000 -13.052000 458.406000
96.678000 -13.042000 458.065000
97.031000 -13.019000 457.246000
97.498000 -13.011000 456.976000
97.853000 -12.989000 456.186000
98.288000 -12.977000 455.771000
98.653000 -12.956000 455.042000
99.107000 -12.947000 454.727000
99.466000 -12.926000 453.984000
99.863000 -12.910000 453.417000
100.246000 -12.892000 452.797000
100.686000 -12.882000 452.438000
101.042000 -12.861000 451.708000
101.413000 -12.842000 451.050000
101.838000 -12.831000 450.640000
102.240000 -12.816000 450.130000
102.604000 -12.797000 449.459000
102.948000 -12.776000 448.713000
103.426000 -12.771000 448.548000
103.773000 -12.751000 447.825000
104.134000 -12.732000 447.168000
104.457000 -12.709000 446.353000
104.983000 -12.710000 446.411000
105.286000 -12.685000 445.523000
105.660000 -12.669000 444.944000
106.005000 -12.649000 444.250000
106.548000 -12.653000 444.387000
106.851000 -12.628000 443.526000
107.480000 -12.642000 444.020000
107.812000 -12.621000 443.286000
108.631000 -12.658000 444.558000
109.053000 -12.647000 444.196000
109.813000 -12.676000 445.209000
110.409000 -12.686000 445.552000
111.141000 -12.711000 446.436000
111.651000 -12.711000 446.426000
112.380000 -12.735000 447.289000
113.013000 -12.749000 447.761000
113.625000 -12.760000 448.145000
114.245000 -12.772000 448.562000
114.881000 -12.785000 449.035000
115.582000 -12.806000 449.755000
116.104000 -12.806000 449.777000
116.863000 -12.833000 450.712000
117.377000 -12.832000 450.698000
118.234000 -12.869000 451.997000
124.010000 -13.040000 457.992000
124.683000 -13.056000 458.535000
125.424000 -13.078000 459.318000
126.123000 -13.096000 459.945000
126.982000 -13.130000 461.146000
127.695000 -13.149000 461.809000
128.442000 -13.171000 462.591000
129.238000 -13.198000 463.540000
129.914000 -13.213000 464.055000
130.633000 -13.232000 464.716000
131.216000 -13.237000 464.890000
131.992000 -13.261000 465.748000
132.505000 -13.259000 465.668000
133.366000 -13.291000 466.812000
133.867000 -13.288000 466.688000
134.744000 -13.321000 467.875000
135.171000 -13.311000 467.494000
136.081000 -13.347000 468.778000
136.563000 -13.342000 468.586000
137.445000 -13.375000 469.762000
137.931000 -13.370000 469.577000
138.877000 -13.409000 470.957000
139.340000 -13.402000 470.695000
59.061000 -13.942000 510.234000
59.581000 -13.926000 509.673000
60.068000 -13.903000 508.837000
60.580000 -13.887000 508.233000
61.069000 -13.865000 507.445000
61.589000 -13.851000 506.934000
62.074000 -13.830000 506.142000
62.573000 -13.812000 505.479000
63.057000 -13.791000 504.707000
63.578000 -13.778000 504.243000
64.046000 -13.754000 503.370000
64.538000 -13.736000 502.696000
65.026000 -13.717000 502.009000
65.540000 -13.704000 501.529000
65.997000 -13.679000 500.627000
66.480000 -13.660000 499.937000
66.975000 -13.644000 499.347000
67.471000 -13.629000 498.780000
67.925000 -13.605000 497.909000
68.428000 -13.591000 497.410000
68.925000 -13.577000 496.872000
69.384000 -13.555000 496.076000
69.831000 -13.531000 495.206000
70.339000 -13.519000 494.782000
70.824000 -13.504000 494.199000
71.280000 -13.482000 493.427000
71.735000 -13.461000 492.658000
72.233000 -13.449000 492.197000
72.691000 -13.429000 491.476000
73.154000 -13.411000 490.796000
73.633000 -13.395000 490.235000
74.115000 -13.381000 489.700000
74.559000 -13.359000 488.925000
75.006000 -13.339000 488.178000
75.482000 -13.324000 487.634000
75.942000 -13.307000 486.990000
76.405000 -13.290000 486.375000
76.862000 -13.272000 485.737000
77.330000 -13.257000 485.175000
77.774000 -13.238000 484.466000
78.240000 -13.222000 483.908000
78.682000 -13.203000 483.210000
79.143000 -13.188000 482.638000
79.594000 -13.171000 482.015000
80.070000 -13.158000 481.547000
80.487000 -13.136000 480.736000
80.953000 -13.122000 480.226000
81.396000 -13.104000 479.585000
81.853000 -13.089000 479.037000
82.251000 -13.065000 478.153000
82.752000 -13.057000 477.876000
83.179000 -13.038000 477.178000
83.615000 -13.021000 476.541000
83.994000 -12.995000 475.589000
84.553000 -12.997000 475.661000
84.936000 -12.972000 474.753000
85.353000 -12.953000 474.037000
85.754000 -12.931000 473.248000
86.265000 -12.926000 473.069000
86.651000 -12.903000 472.214000
87.073000 -12.885000 471.560000
87.537000 -12.874000 471.144000
87.982000 -12.859000 470.629000
88.359000 -12.836000 469.762000
88.762000 -12.816000 469.042000
89.268000 -12.811000 468.873000
89.668000 -12.792000 468.146000
90.050000 -12.770000 467.342000
90.475000 -12.754000 466.764000
90.924000 -12.742000 466.320000
91.314000 -12.721000 465.576000
91.709000 -12.702000 464.871000
92.141000 -12.688000 464.356000
92.588000 -12.676000 463.923000
92.961000 -12.655000 463.127000
93.363000 -12.637000 462.485000
93.779000 -12.622000 461.921000
94.213000 -12.609000 461.445000
94.586000 -12.588000 460.684000
95.031000 -12.577000 460.276000
95.417000 -12.558000 459.588000
95.859000 -12.547000 459.178000
96.212000 -12.524000 458.346000
96.661000 -12.514000 457.984000
97.015000 -12.492000 457.173000
97.473000 -12.483000 456.861000
97.840000 -12.463000 456.124000
98.272000 -12.451000 455.697000
98.636000 -12.431000 454.962000
99.088000 -12.423000 454.640000
99.449000 -12.403000 453.908000
99.846000 -12.387000 453.341000
100.223000 -12.369000 452.692000
100.667000 -12.360000 452.354000
101.022000 -12.340000 451.617000
101.395000 -12.322000 450.968000
101.809000 -12.310000 450.512000
102.224000 -12.297000 450.058000
102.582000 -12.278000 449.364000
102.927000 -12.258000 448.619000
103.384000 -12.251000 448.367000
103.749000 -12.234000 447.720000
104.118000 -12.216000 447.096000
104.435000 -12.194000 446.258000
104.968000 -12.196000 446.344000
105.270000 -12.172000 445.457000
105.650000 -12.157000 444.901000
105.955000 -12.133000 444.037000
106.539000 -12.141000 444.346000
106.841000 -12.118000 443.484000
107.449000 -12.129000 443.891000
107.796000 -12.111000 443.224000
108.615000 -12.145000 444.492000
109.018000 -12.133000 444.053000
109.780000 -12.161000 445.075000
110.375000 -12.170000 445.413000
111.114000 -12.196000 446.329000
111.617000 -12.194000 446.289000
112.331000 -12.216000 447.093000
112.979000 -12.231000 447.628000
113.566000 -12.239000 447.912000
114.222000 -12.254000 448.471000
114.852000 -12.266000 448.918000
115.550000 -12.286000 449.629000
116.089000 -12.288000 449.716000
116.849000 -12.314000 450.659000
117.369000 -12.314000 450.669000
118.174000 -12.344000 451.765000
123.338000 -12.446000 455.511000
123.857000 -12.446000 455.495000
124.668000 -12.475000 456.551000
125.133000 -12.469000 456.334000
126.283000 -12.531000 458.610000
127.102000 -12.560000 459.666000
128.122000 -12.608000 461.437000
129.143000 -12.657000 463.201000
129.827000 -12.671000 463.742000
130.639000 -12.698000 464.736000
131.167000 -12.698000 464.718000
131.980000 -12.725000 465.703000
132.504000 -12.724000 465.668000
133.337000 -12.752000 466.708000
133.861000 -12.751000 466.669000
134.724000 -12.782000 467.804000
135.158000 -12.773000 467.446000
136.072000 -12.808000 468.746000
136.542000 -12.802000 468.514000
137.550000 -12.846000 470.119000
137.878000 -12.826000 469.397000
138.796000 -12.861000 470.682000
139.301000 -12.858000 470.563000
59.043000 -13.352000 510.078000
59.563000 -13.337000 509.522000
60.051000 -13.316000 508.696000
60.561000 -13.299000 508.074000
61.048000 -13.278000 507.272000
61.573000 -13.266000 506.801000
62.053000 -13.244000 505.968000
62.557000 -13.228000 505.349000
63.036000 -13.207000 504.537000
63.557000 -13.194000 504.072000
64.025000 -13.172000 503.201000
64.520000 -13.155000 502.556000
65.001000 -13.135000 501.817000
65.521000 -13.124000 501.390000
65.978000 -13.101000 500.483000
66.463000 -13.083000 499.813000
66.951000 -13.066000 499.172000
67.455000 -13.053000 498.657000
67.910000 -13.030000 497.800000
68.398000 -13.014000 497.190000
68.894000 -13.000000 496.649000
69.367000 -12.982000 495.956000
69.816000 -12.960000 495.097000
70.309000 -12.946000 494.569000
70.805000 -12.933000 494.067000
71.263000 -12.913000 493.313000
71.710000 -12.891000 492.487000
72.197000 -12.877000 491.957000
72.671000 -12.861000 491.339000
73.138000 -12.844000 490.686000
73.606000 -12.828000 490.056000
74.090000 -12.814000 489.531000
74.540000 -12.795000 488.795000
74.988000 -12.775000 488.061000
75.459000 -12.760000 487.483000
75.927000 -12.745000 486.895000
76.389000 -12.729000 486.276000
76.844000 -12.712000 485.623000
77.311000 -12.697000 485.052000
77.759000 -12.679000 484.375000
78.223000 -12.664000 483.805000
78.663000 -12.645000 483.095000
79.123000 -12.630000 482.516000
79.569000 -12.613000 481.861000
80.053000 -12.602000 481.446000
80.468000 -12.581000 480.623000
80.928000 -12.566000 480.077000
81.371000 -12.550000 479.440000
81.831000 -12.536000 478.910000
82.228000 -12.513000 478.021000
82.711000 -12.503000 477.639000
83.151000 -12.486000 477.022000
83.594000 -12.471000 476.424000
83.975000 -12.446000 475.480000
84.527000 -12.447000 475.514000
84.917000 -12.424000 474.644000
85.329000 -12.405000 473.905000
85.709000 -12.381000 472.997000
86.225000 -12.377000 472.848000
86.625000 -12.357000 472.074000
87.060000 -12.342000 471.490000
87.491000 -12.326000 470.898000
87.945000 -12.314000 470.432000
88.328000 -12.292000 469.599000
88.724000 -12.272000 468.841000
89.216000 -12.266000 468.597000
89.635000 -12.250000 467.973000
90.011000 -12.228000 467.136000
90.402000 -12.208000 466.386000
90.871000 -12.199000 466.049000
91.280000 -12.182000 465.405000
91.675000 -12.164000 464.695000
92.096000 -12.149000 464.131000
92.563000 -12.140000 463.797000
92.938000 -12.120000 463.012000
93.340000 -12.103000 462.373000
93.740000 -12.086000 461.727000
94.194000 -12.076000 461.353000
94.562000 -12.056000 460.567000
95.017000 -12.046000 460.206000
95.393000 -12.027000 459.475000
95.844000 -12.017000 459.106000
96.196000 -11.996000 458.273000
96.637000 -11.985000 457.866000
97.000000 -11.965000 457.102000
97.450000 -11.956000 456.751000
97.817000 -11.937000 456.017000
98.246000 -11.925000 455.576000
98.605000 -11.905000 454.819000
99.052000 -11.896000 454.474000
99.430000 -11.879000 453.818000
99.828000 -11.864000 453.259000
100.196000 -11.846000 452.572000
100.626000 -11.836000 452.169000
100.999000 -11.819000 451.514000
101.371000 -11.802000 450.865000
101.771000 -11.788000 450.342000
102.196000 -11.777000 449.938000
102.557000 -11.760000 449.254000
102.901000 -11.740000 448.506000
103.339000 -11.731000 448.173000
103.728000 -11.717000 447.630000
104.097000 -11.701000 447.008000
104.414000 -11.679000 446.170000
104.925000 -11.679000 446.162000
105.248000 -11.658000 445.364000
105.621000 -11.642000 444.781000
105.898000 -11.617000 443.801000
106.514000 -11.628000 444.245000
106.819000 -11.606000 443.394000
107.395000 -11.613000 443.668000
107.778000 -11.600000 443.149000
108.583000 -11.631000 444.360000
108.986000 -11.620000 443.923000
109.756000 -11.648000 444.978000
110.340000 -11.655000 445.273000
111.069000 -11.678000 446.148000
111.587000 -11.679000 446.173000
112.304000 -11.700000 446.987000
112.957000 -11.715000 447.540000
113.535000 -11.721000 447.793000
114.192000 -11.736000 448.353000
114.806000 -11.746000 448.740000
115.504000 -11.765000 449.450000
116.041000 -11.767000 449.531000
116.837000 -11.795000 450.612000
117.327000 -11.792000 450.508000
118.148000 -11.823000 451.668000
118.620000 -11.818000 451.490000
119.494000 -11.853000 452.835000
119.914000 -11.843000 452.458000
120.786000 -11.878000 453.782000
121.193000 -11.867000 453.357000
122.041000 -11.899000 454.578000
122.542000 -11.897000 454.500000
123.355000 -11.925000 455.574000
123.841000 -11.921000 455.438000
124.673000 -11.951000 456.570000
125.134000 -11.945000 456.339000
125.946000 -11.972000 457.384000
126.577000 -11.982000 457.766000
127.533000 -12.023000 459.318000
128.575000 -12.071000 461.162000
129.208000 -12.081000 461.532000
130.131000 -12.118000 462.929000
134.709000 -12.244000 467.753000
135.135000 -12.234000 467.369000
136.059000 -12.269000 468.704000
136.530000 -12.263000 468.471000
137.491000 -12.300000 469.918000
137.867000 -12.286000 469.361000
138.752000 -12.317000 470.533000
139.271000 -12.315000 470.461000
59.544000 -12.748000 509.356000
60.035000 -12.728000 508.558000
60.543000 -12.712000 507.921000
61.029000 -12.692000 507.120000
61.553000 -12.680000 506.638000
62.032000 -12.659000 505.801000
62.541000 -12.644000 505.219000
63.020000 -12.624000 504.411000
63.539000 -12.612000 503.930000
64.010000 -12.591000 503.082000
64.507000 -12.575000 502.453000
64.984000 -12.556000 501.684000
65.500000 -12.544000 501.226000
65.961000 -12.523000 500.360000
66.450000 -12.507000 499.714000
66.931000 -12.489000 499.021000
67.437000 -12.477000 498.528000
67.895000 -12.456000 497.688000
68.370000 -12.438000 496.988000
68.865000 -12.425000 496.440000
69.353000 -12.410000 495.853000
69.802000 -12.389000 495.002000
70.291000 -12.375000 494.439000
70.786000 -12.362000 493.935000
71.248000 -12.344000 493.204000
71.694000 -12.323000 492.380000
72.176000 -12.309000 491.812000
72.652000 -12.294000 491.211000
73.121000 -12.278000 490.573000
73.586000 -12.261000 489.918000
74.065000 -12.248000 489.368000
74.526000 -12.231000 488.706000
74.975000 -12.213000 487.975000
75.442000 -12.198000 487.371000
75.909000 -12.183000 486.781000
76.376000 -12.168000 486.194000
76.828000 -12.151000 485.520000
77.292000 -12.137000 484.932000
77.737000 -12.119000 484.240000
78.211000 -12.107000 483.730000
78.650000 -12.089000 483.017000
79.108000 -12.074000 482.424000
79.548000 -12.057000 481.737000
80.030000 -12.046000 481.306000
80.442000 -12.025000 480.470000
80.902000 -12.011000 479.921000
81.347000 -11.996000 479.298000
81.810000 -11.983000 478.788000
82.206000 -11.961000 477.895000
82.682000 -11.950000 477.471000
83.117000 -11.934000 476.825000
83.571000 -11.920000 476.288000
83.960000 -11.898000 475.397000
84.487000 -11.895000 475.290000
84.900000 -11.877000 474.547000
85.306000 -11.857000 473.776000
85.682000 -11.834000 472.852000
86.208000 -11.832000 472.758000
86.609000 -11.813000 471.984000
87.029000 -11.796000 471.324000
87.449000 -11.780000 470.669000
87.923000 -11.771000 470.317000
88.304000 -11.750000 469.472000
88.706000 -11.732000 468.746000
89.167000 -11.721000 468.342000
89.614000 -11.709000 467.864000
89.993000 -11.689000 467.045000
90.380000 -11.670000 466.275000
90.846000 -11.661000 465.920000
91.269000 -11.646000 465.346000
91.666000 -11.629000 464.650000
92.075000 -11.613000 464.023000
92.543000 -11.605000 463.698000
92.919000 -11.586000 462.919000
93.328000 -11.571000 462.313000
93.726000 -11.554000 461.657000
94.182000 -11.545000 461.294000
94.550000 -11.525000 460.505000
94.997000 -11.515000 460.110000
95.372000 -11.497000 459.371000
95.821000 -11.488000 458.996000
96.170000 -11.466000 458.146000
96.616000 -11.457000 457.768000
96.979000 -11.438000 457.001000
97.428000 -11.429000 456.648000
97.795000 -11.410000 455.914000
98.218000 -11.399000 455.448000
98.579000 -11.380000 454.701000
99.027000 -11.372000 454.362000
99.409000 -11.356000 453.725000
99.803000 -11.341000 453.144000
100.158000 -11.322000 452.402000
100.593000 -11.313000 452.022000
100.978000 -11.298000 451.419000
101.349000 -11.281000 450.764000
101.727000 -11.266000 450.150000
102.162000 -11.257000 449.788000
102.540000 -11.242000 449.180000
102.885000 -11.223000 448.437000
103.301000 -11.212000 448.006000
103.710000 -11.201000 447.553000
104.078000 -11.185000 446.925000
104.389000 -11.164000 446.061000
104.879000 -11.161000 445.968000
105.232000 -11.145000 445.293000
105.602000 -11.130000 444.699000
105.883000 -11.106000 443.737000
106.495000 -11.116000 444.163000
106.800000 -11.095000 443.314000
107.344000 -11.099000 443.459000
107.761000 -11.089000 443.079000
108.554000 -11.118000 444.242000
108.959000 -11.108000 443.813000
109.721000 -11.133000 444.835000
110.319000 -11.142000 445.188000
111.032000 -11.162000 445.999000
111.560000 -11.164000 446.062000
112.280000 -11.185000 446.891000
112.917000 -11.197000 447.381000
113.503000 -11.204000 447.665000
114.174000 -11.219000 448.281000
114.785000 -11.229000 448.658000
115.490000 -11.247000 449.395000
116.028000 -11.249000 449.481000
116.806000 -11.275000 450.491000
117.300000 -11.272000 450.402000
118.102000 -11.300000 451.490000
118.579000 -11.296000 451.334000
119.463000 -11.330000 452.720000
119.860000 -11.319000 452.257000
120.746000 -11.353000 453.635000
121.176000 -11.345000 453.293000
122.018000 -11.375000 454.490000
122.556000 -11.376000 454.552000
123.316000 -11.398000 455.429000
123.864000 -11.401000 455.521000
124.672000 -11.427000 456.564000
125.177000 -11.425000 456.497000
125.867000 -11.440000 457.098000
126.535000 -11.453000 457.614000
127.154000 -11.461000 457.952000
127.850000 -11.477000 458.563000
128.525000 -11.490000 459.091000
129.200000 -11.503000 459.617000
134.700000 -11.706000 467.722000
135.083000 -11.693000 467.190000
136.032000 -11.728000 468.608000
136.519000 -11.724000 468.433000
137.327000 -11.747000 469.357000
137.894000 -11.749000 469.452000
138.662000 -11.769000 470.229000
139.239000 -11.772000 470.356000
59.530000 -12.160000 509.235000
60.019000 -12.141000 508.424000
60.524000 -12.125000 507.765000
61.014000 -12.107000 506.989000
61.534000 -12.094000 506.476000
62.014000 -12.075000 505.654000
62.521000 -12.060000 505.060000
63.000000 -12.041000 504.252000
63.519000 -12.030000 503.776000
63.994000 -12.010000 502.961000
64.491000 -11.995000 502.334000
64.963000 -11.976000 501.520000
65.473000 -11.964000 501.017000
65.948000 -11.946000 500.255000
66.433000 -11.930000 499.587000
66.912000 -11.913000 498.878000
67.422000 -11.902000 498.412000
67.880000 -11.882000 497.577000
68.351000 -11.864000 496.851000
68.832000 -11.849000 496.203000
69.335000 -11.838000 495.726000
69.787000 -11.818000 494.896000
70.266000 -11.803000 494.265000
70.761000 -11.791000 493.759000
71.228000 -11.774000 493.070000
71.676000 -11.755000 492.257000
72.152000 -11.740000 491.651000
72.639000 -11.728000 491.126000
73.106000 -11.712000 490.476000
73.563000 -11.695000 489.769000
74.039000 -11.682000 489.196000
74.506000 -11.667000 488.572000
74.960000 -11.650000 487.881000
75.422000 -11.635000 487.246000
75.891000 -11.621000 486.663000
76.354000 -11.607000 486.054000
76.803000 -11.590000 485.363000
77.266000 -11.576000 484.774000
77.715000 -11.560000 484.102000
78.185000 -11.547000 483.568000
78.625000 -11.530000 482.865000
79.083000 -11.516000 482.272000
79.521000 -11.500000 481.573000
80.004000 -11.490000 481.152000
80.413000 -11.469000 480.298000
80.865000 -11.455000 479.703000
81.316000 -11.441000 479.114000
81.793000 -11.431000 478.686000
82.188000 -11.409000 477.789000
82.655000 -11.398000 477.319000
83.080000 -11.381000 476.614000
83.545000 -11.370000 476.144000
83.953000 -11.351000 475.355000
84.432000 -11.342000 474.981000
84.871000 -11.328000 474.389000
85.273000 -11.309000 473.597000
85.663000 -11.289000 472.744000
86.170000 -11.284000 472.547000
86.592000 -11.268000 471.893000
86.991000 -11.250000 471.117000
87.372000 -11.229000 470.258000
87.908000 -11.229000 470.233000
88.289000 -11.209000 469.392000
88.693000 -11.192000 468.676000
89.128000 -11.179000 468.135000
89.599000 -11.170000 467.785000
89.979000 -11.151000 466.973000
90.368000 -11.133000 466.214000
90.823000 -11.123000 465.801000
91.252000 -11.110000 465.261000
91.652000 -11.094000 464.582000
92.041000 -11.076000 463.851000
92.517000 -11.070000 463.567000
92.902000 -11.052000 462.836000
93.312000 -11.038000 462.234000
93.706000 -11.022000 461.557000
94.164000 -11.013000 461.207000
94.530000 -10.994000 460.412000
94.968000 -10.984000 459.972000
95.335000 -10.965000 459.193000
95.787000 -10.957000 458.835000
96.142000 -10.937000 458.016000
96.585000 -10.928000 457.623000
96.947000 -10.909000 456.854000
97.400000 -10.901000 456.518000
97.762000 -10.883000 455.760000
98.188000 -10.872000 455.308000
98.546000 -10.854000 454.546000
98.986000 -10.845000 454.173000
99.375000 -10.831000 453.568000
99.765000 -10.817000 452.973000
100.126000 -10.800000 452.256000
100.556000 -10.790000 451.854000
100.954000 -10.777000 451.312000
101.319000 -10.761000 450.633000
101.687000 -10.745000 449.971000
102.120000 -10.736000 449.600000
102.514000 -10.723000 449.066000
102.851000 -10.705000 448.287000
103.243000 -10.692000 447.755000
103.667000 -10.683000 447.366000
104.051000 -10.670000 446.811000
104.365000 -10.649000 445.958000
104.819000 -10.643000 445.714000
105.209000 -10.631000 445.198000
105.578000 -10.617000 444.597000
105.858000 -10.594000 443.631000
106.465000 -10.603000 444.037000
106.775000 -10.584000 443.210000
107.286000 -10.584000 443.218000
107.735000 -10.578000 442.972000
108.536000 -10.606000 444.166000
108.942000 -10.596000 443.742000
109.699000 -10.620000 444.746000
110.293000 -10.628000 445.082000
110.952000 -10.642000 445.680000
111.527000 -10.648000 445.929000
112.252000 -10.669000 446.778000
112.888000 -10.680000 447.264000
113.473000 -10.687000 447.547000
114.145000 -10.702000 448.168000
114.749000 -10.710000 448.518000
115.438000 -10.726000 449.196000
115.991000 -10.730000 449.338000
116.777000 -10.755000 450.378000
117.265000 -10.752000 450.266000
118.034000 -10.775000 451.233000
118.554000 -10.775000 451.238000
119.435000 -10.808000 452.615000
119.799000 -10.794000 452.026000
120.749000 -10.833000 453.646000
121.155000 -10.822000 453.214000
121.994000 -10.851000 454.400000
122.495000 -10.849000 454.324000
123.241000 -10.869000 455.155000
123.820000 -10.874000 455.361000
124.608000 -10.897000 456.332000
125.139000 -10.897000 456.357000
125.849000 -10.914000 457.032000
126.537000 -10.928000 457.621000
127.160000 -10.936000 457.974000
127.849000 -10.950000 458.559000
128.507000 -10.961000 459.028000
129.220000 -10.977000 459.689000
59.516000 -11.573000 509.113000
60.003000 -11.554000 508.291000
60.507000 -11.539000 507.624000
60.997000 -11.521000 506.847000
61.517000 -11.510000 506.336000
61.996000 -11.491000 505.507000
62.502000 -11.477000 504.902000
62.983000 -11.459000 504.115000
63.495000 -11.447000 503.584000
63.975000 -11.429000 502.813000
64.473000 -11.415000 502.195000
64.948000 -11.398000 501.410000
65.454000 -11.385000 500.876000
65.933000 -11.369000 500.145000
66.418000 -11.353000 499.472000
66.890000 -11.336000 498.718000
67.404000 -11.326000 498.279000
67.863000 -11.308000 497.455000
68.334000 -11.291000 496.724000
68.807000 -11.275000 496.022000
69.322000 -11.266000 495.636000
69.776000 -11.248000 494.816000
70.241000 -11.231000 494.089000
70.738000 -11.220000 493.596000
71.215000 -11.206000 492.980000
71.662000 -11.187000 492.161000
72.137000 -11.173000 491.545000
72.628000 -11.162000 491.052000
73.087000 -11.146000 490.347000
73.540000 -11.129000 489.612000
74.016000 -11.116000 489.042000
74.489000 -11.103000 488.465000
74.946000 -11.088000 487.788000
75.404000 -11.073000 487.130000
75.872000 -11.060000 486.539000
76.338000 -11.046000 485.954000
76.785000 -11.030000 485.247000
77.240000 -11.016000 484.610000
77.686000 -11.000000 483.922000
78.160000 -10.988000 483.415000
78.599000 -10.972000 482.701000
79.062000 -10.960000 482.147000
79.498000 -10.943000 481.431000
79.973000 -10.933000 480.963000
80.392000 -10.915000 480.169000
80.853000 -10.903000 479.634000
81.297000 -10.888000 479.005000
81.777000 -10.879000 478.596000
82.172000 -10.858000 477.694000
82.623000 -10.846000 477.136000
83.057000 -10.831000 476.482000
83.537000 -10.822000 476.098000
83.935000 -10.803000 475.255000
84.400000 -10.793000 474.802000
84.841000 -10.779000 474.217000
85.260000 -10.764000 473.521000
85.651000 -10.744000 472.680000
86.140000 -10.738000 472.386000
86.579000 -10.725000 471.820000
86.973000 -10.707000 471.019000
87.351000 -10.687000 470.144000
87.861000 -10.683000 469.984000
88.271000 -10.668000 469.295000
88.673000 -10.651000 468.572000
89.091000 -10.637000 467.942000
89.580000 -10.631000 467.686000
89.964000 -10.613000 466.892000
90.351000 -10.595000 466.124000
90.800000 -10.585000 465.684000
91.239000 -10.574000 465.195000
91.639000 -10.559000 464.517000
92.020000 -10.541000 463.747000
92.487000 -10.534000 463.418000
92.884000 -10.519000 462.747000
93.296000 -10.505000 462.156000
93.684000 -10.489000 461.453000
94.145000 -10.482000 461.116000
94.507000 -10.463000 460.300000
94.942000 -10.453000 459.844000
95.311000 -10.435000 459.081000
95.766000 -10.427000 458.732000
96.121000 -10.409000 457.916000
96.560000 -10.399000 457.502000
96.921000 -10.382000 456.729000
97.368000 -10.374000 456.367000
97.736000 -10.357000 455.638000
98.167000 -10.347000 455.211000
98.524000 -10.330000 454.446000
98.957000 -10.321000 454.039000
99.343000 -10.307000 453.423000
99.746000 -10.295000 452.886000
100.108000 -10.278000 452.173000
100.529000 -10.268000 451.732000
100.932000 -10.257000 451.214000
101.300000 -10.241000 450.549000
101.664000 -10.226000 449.868000
102.086000 -10.216000 449.451000
102.492000 -10.206000 448.970000
102.833000 -10.188000 448.209000
103.215000 -10.175000 447.636000
103.640000 -10.166000 447.249000
104.035000 -10.155000 446.742000
104.346000 -10.135000 445.880000
104.772000 -10.127000 445.511000
105.179000 -10.117000 445.068000
105.557000 -10.104000 444.510000
105.836000 -10.082000 443.539000
106.416000 -10.089000 443.833000
106.752000 -10.072000 443.114000
107.229000 -10.069000 442.983000
107.714000 -10.067000 442.884000
108.523000 -10.095000 444.115000
108.928000 -10.085000 443.688000
109.672000 -10.107000 444.639000
110.232000 -10.112000 444.837000
110.917000 -10.128000 445.539000
111.509000 -10.135000 445.861000
112.206000 -10.152000 446.596000
112.847000 -10.163000 447.104000
113.448000 -10.171000 447.448000
114.124000 -10.185000 448.087000
114.709000 -10.192000 448.362000
115.389000 -10.206000 449.003000
115.949000 -10.210000 449.175000
116.730000 -10.233000 450.199000
117.231000 -10.232000 450.138000
118.009000 -10.255000 451.135000
118.531000 -10.255000 451.151000
119.380000 -10.284000 452.403000
119.784000 -10.274000 451.969000
120.709000 -10.308000 453.495000
121.147000 -10.301000 453.187000
121.950000 -10.325000 454.237000
122.481000 -10.326000 454.274000
123.233000 -10.345000 455.125000
123.805000 -10.350000 455.307000
124.590000 -10.371000 456.264000
125.134000 -10.373000 456.337000
125.821000 -10.387000 456.932000
126.515000 -10.400000 457.543000
127.146000 -10.409000 457.922000
127.823000 -10.421000 458.466000
128.507000 -10.434000 459.030000
129.226000 -10.450000 459.711000
129.766000 -10.451000 459.755000
130.581000 -10.474000 460.767000
131.112000 -10.474000 460.774000
132.059000 -10.507000 462.237000
132.297000 -10.484000 461.215000
59.499000 -10.985000 508.969000
59.983000 -10.967000 508.118000
60.488000 -10.952000 507.462000
60.976000 -10.935000 506.673000
61.496000 -10.925000 506.170000
61.975000 -10.907000 505.336000
62.482000 -10.894000 504.745000
62.966000 -10.877000 503.977000
63.475000 -10.865000 503.427000
63.958000 -10.849000 502.677000
64.460000 -10.836000 502.088000
64.933000 -10.819000 501.295000
65.434000 -10.807000 500.718000
65.915000 -10.792000 500.010000
66.403000 -10.778000 499.363000
66.866000 -10.760000 498.537000
67.382000 -10.751000 498.120000
67.849000 -10.734000 497.351000
68.320000 -10.718000 496.620000
68.784000 -10.702000 495.858000
69.307000 -10.695000 495.522000
69.764000 -10.678000 494.729000
70.223000 -10.661000 493.963000
70.715000 -10.650000 493.437000
71.202000 -10.638000 492.885000
71.649000 -10.620000 492.069000
72.113000 -10.605000 491.381000
72.606000 -10.595000 490.897000
73.073000 -10.581000 490.253000
73.521000 -10.564000 489.488000
73.986000 -10.551000 488.846000
74.461000 -10.538000 488.281000
74.918000 -10.524000 487.603000
75.377000 -10.510000 486.951000
75.843000 -10.497000 486.354000
76.315000 -10.485000 485.802000
76.757000 -10.469000 485.073000
77.215000 -10.456000 484.455000
77.661000 -10.441000 483.768000
78.140000 -10.431000 483.291000
78.582000 -10.416000 482.595000
79.044000 -10.404000 482.033000
79.482000 -10.389000 481.335000
79.946000 -10.377000 480.800000
80.378000 -10.362000 480.087000
80.838000 -10.350000 479.546000
81.284000 -10.337000 478.928000
81.751000 -10.326000 478.443000
82.156000 -10.308000 477.606000
82.588000 -10.293000 476.930000
83.042000 -10.282000 476.393000
83.517000 -10.273000 475.981000
83.907000 -10.254000 475.097000
84.366000 -10.243000 474.611000
84.809000 -10.231000 474.042000
85.254000 -10.219000 473.488000
85.639000 -10.200000 472.610000
86.149000 -10.196000 472.431000
86.579000 -10.183000 471.818000
86.968000 -10.165000 470.993000
87.338000 -10.145000 470.073000
87.823000 -10.139000 469.782000
88.255000 -10.127000 469.208000
88.656000 -10.111000 468.479000
89.052000 -10.095000 467.734000
89.531000 -10.088000 467.431000
89.938000 -10.074000 466.759000
90.330000 -10.058000 466.015000
90.764000 -10.047000 465.497000
91.219000 -10.038000 465.092000
91.621000 -10.023000 464.421000
92.001000 -10.007000 463.652000
92.453000 -9.998000 463.246000
92.859000 -9.985000 462.623000
93.273000 -9.972000 462.039000
93.646000 -9.955000 461.263000
94.112000 -9.949000 460.951000
94.483000 -9.932000 460.183000
94.913000 -9.922000 459.703000
95.277000 -9.905000 458.915000
95.732000 -9.897000 458.573000
96.091000 -9.880000 457.774000
96.530000 -9.871000 457.362000
96.885000 -9.854000 456.562000
97.331000 -9.846000 456.192000
97.700000 -9.830000 455.472000
98.140000 -9.822000 455.086000
98.498000 -9.806000 454.329000
98.918000 -9.796000 453.859000
99.308000 -9.783000 453.261000
99.716000 -9.772000 452.752000
100.077000 -9.756000 452.032000
100.485000 -9.745000 451.534000
100.896000 -9.735000 451.053000
101.274000 -9.722000 450.430000
101.639000 -9.707000 449.759000
102.035000 -9.696000 449.227000
102.465000 -9.687000 448.854000
102.808000 -9.671000 448.100000
103.178000 -9.658000 447.475000
103.584000 -9.648000 447.008000
104.012000 -9.640000 446.640000
104.322000 -9.621000 445.775000
104.706000 -9.609000 445.231000
105.120000 -9.600000 444.820000
105.530000 -9.591000 444.396000
105.802000 -9.570000 443.396000
106.280000 -9.567000 443.268000
106.719000 -9.561000 442.978000
107.160000 -9.555000 442.696000
107.690000 -9.557000 442.787000
108.508000 -9.584000 444.053000
108.910000 -9.574000 443.614000
109.653000 -9.595000 444.560000
110.177000 -9.596000 444.614000
110.878000 -9.612000 445.379000
111.491000 -9.621000 445.787000
112.173000 -9.636000 446.462000
112.795000 -9.645000 446.898000
113.404000 -9.653000 447.274000
114.106000 -9.669000 448.016000
114.660000 -9.673000 448.168000
115.354000 -9.688000 448.868000
115.920000 -9.692000 449.064000
116.700000 -9.714000 450.082000
117.203000 -9.713000 450.028000
118.004000 -9.736000 451.117000
118.487000 -9.733000 450.982000
119.357000 -9.762000 452.316000
119.755000 -9.752000 451.861000
120.628000 -9.781000 453.191000
121.079000 -9.775000 452.929000
121.911000 -9.801000 454.092000
122.446000 -9.802000 454.143000
123.189000 -9.819000 454.960000
123.758000 -9.823000 455.133000
124.573000 -9.846000 456.204000
125.103000 -9.847000 456.224000
125.798000 -9.860000 456.845000
126.496000 -9.874000 457.474000
127.126000 -9.882000 457.852000
127.803000 -9.893000 458.393000
128.480000 -9.905000 458.933000
129.195000 -9.919000 459.601000
129.710000 -9.918000 459.556000
130.557000 -9.943000 460.683000
131.071000 -9.942000 460.630000
132.019000 -9.973000 462.096000
132.280000 -9.953000 461.157000
59.481000 -10.397000 508.819000
59.966000 -10.380000 507.978000
60.470000 -10.367000 507.313000
60.958000 -10.351000 506.525000
61.479000 -10.340000 506.030000
61.955000 -10.323000 505.169000
62.468000 -10.312000 504.625000
62.947000 -10.295000 503.823000
63.456000 -10.284000 503.270000
63.936000 -10.268000 502.504000
64.443000 -10.257000 501.961000
64.913000 -10.241000 501.139000
65.412000 -10.228000 500.549000
65.895000 -10.214000 499.854000
66.391000 -10.202000 499.271000
66.852000 -10.185000 498.436000
67.366000 -10.176000 498.004000
67.838000 -10.161000 497.270000
68.303000 -10.146000 496.496000
68.759000 -10.129000 495.677000
69.291000 -10.123000 495.411000
69.753000 -10.108000 494.652000
70.211000 -10.092000 493.879000
70.691000 -10.080000 493.268000
71.188000 -10.070000 492.794000
71.637000 -10.054000 491.990000
72.092000 -10.038000 491.238000
72.584000 -10.028000 490.752000
73.058000 -10.016000 490.150000
73.508000 -10.001000 489.397000
73.967000 -9.987000 488.722000
74.439000 -9.975000 488.134000
74.898000 -9.961000 487.473000
75.351000 -9.947000 486.782000
75.824000 -9.936000 486.231000
76.301000 -9.925000 485.717000
76.745000 -9.911000 484.999000
77.206000 -9.898000 484.397000
77.657000 -9.885000 483.739000
78.126000 -9.874000 483.207000
78.568000 -9.860000 482.510000
79.037000 -9.849000 481.995000
79.474000 -9.835000 481.291000
79.935000 -9.824000 480.735000
80.360000 -9.808000 479.980000
