108.536000 -39.971000 505.986000
109.214000 -40.006000 506.435000
71.418000 -39.108000 502.370000
71.962000 -39.091000 502.143000
72.613000 -39.131000 502.655000
73.135000 -39.101000 502.277000
73.812000 -39.154000 502.957000
74.289000 -39.101000 502.277000
74.965000 -39.153000 502.945000
75.441000 -39.101000 502.271000
76.132000 -39.159000 503.023000
76.608000 -39.108000 502.360000
77.311000 -39.171000 503.177000
77.788000 -39.121000 502.526000
78.494000 -39.185000 503.358000
78.961000 -39.130000 502.651000
79.658000 -39.189000 503.407000
80.137000 -39.141000 502.785000
80.837000 -39.200000 503.547000
81.308000 -39.149000 502.887000
81.985000 -39.196000 503.495000
82.483000 -39.158000 503.007000
83.148000 -39.199000 503.540000
83.728000 -39.200000 503.546000
84.319000 -39.206000 503.626000
84.897000 -39.206000 503.625000
85.467000 -39.202000 503.577000
86.071000 -39.214000 503.724000
86.634000 -39.207000 503.637000
87.269000 -39.232000 503.961000
87.825000 -39.222000 503.833000
88.464000 -39.249000 504.179000
89.012000 -39.235000 504.000000
89.652000 -39.262000 504.349000
90.187000 -39.243000 504.101000
90.833000 -39.272000 504.473000
91.345000 -39.243000 504.102000
92.001000 -39.276000 504.528000
92.484000 -39.235000 504.001000
93.153000 -39.273000 504.490000
93.646000 -39.237000 504.026000
94.375000 -39.300000 504.827000
94.885000 -39.271000 504.457000
95.548000 -39.305000 504.899000
96.051000 -39.274000 504.500000
96.748000 -39.322000 505.111000
97.263000 -39.295000 504.772000
97.901000 -39.319000 505.078000
98.434000 -39.300000 504.834000
99.075000 -39.325000 505.150000
99.631000 -39.315000 505.023000
100.280000 -39.342000 505.373000
100.821000 -39.327000 505.178000
101.465000 -39.352000 505.495000
102.012000 -39.339000 505.331000
102.647000 -39.360000 505.598000
103.207000 -39.352000 505.501000
103.791000 -39.353000 505.516000
104.384000 -39.358000 505.579000
104.957000 -39.355000 505.543000
105.585000 -39.373000 505.770000
106.143000 -39.364000 505.658000
106.781000 -39.386000 505.932000
107.341000 -39.378000 505.832000
107.971000 -39.396000 506.064000
108.513000 -39.382000 505.878000
109.189000 -39.416000 506.322000
70.757000 -38.486000 501.776000
71.399000 -38.521000 502.233000
71.935000 -38.499000 501.951000
72.613000 -38.553000 502.655000
73.095000 -38.503000 501.999000
73.792000 -38.566000 502.822000
74.273000 -38.516000 502.171000
74.952000 -38.569000 502.857000
75.432000 -38.519000 502.207000
76.109000 -38.570000 502.871000
76.597000 -38.525000 502.286000
77.298000 -38.587000 503.092000
77.777000 -38.538000 502.458000
78.475000 -38.598000 503.234000
78.949000 -38.547000 502.571000
79.648000 -38.606000 503.342000
80.124000 -38.557000 502.701000
80.820000 -38.614000 503.443000
81.305000 -38.570000 502.866000
81.980000 -38.616000 503.466000
82.475000 -38.577000 502.957000
83.135000 -38.615000 503.459000
83.699000 -38.609000 503.375000
84.302000 -38.620000 503.523000
84.882000 -38.621000 503.532000
85.454000 -38.618000 503.497000
86.054000 -38.628000 503.628000
86.616000 -38.621000 503.534000
87.241000 -38.641000 503.800000
87.787000 -38.627000 503.613000
88.438000 -38.659000 504.032000
88.984000 -38.644000 503.843000
89.634000 -38.676000 504.247000
90.166000 -38.655000 503.980000
90.814000 -38.685000 504.365000
91.326000 -38.656000 503.998000
91.986000 -38.690000 504.440000
92.468000 -38.650000 503.912000
93.132000 -38.686000 504.377000
93.622000 -38.648000 503.895000
94.336000 -38.704000 504.617000
94.845000 -38.675000 504.246000
95.537000 -38.721000 504.840000
96.047000 -38.693000 504.475000
96.728000 -38.734000 505.006000
97.250000 -38.711000 504.707000
97.869000 -38.727000 504.912000
98.420000 -38.715000 504.761000
99.041000 -38.731000 504.976000
99.601000 -38.724000 504.875000
100.239000 -38.746000 505.170000
100.805000 -38.741000 505.095000
101.447000 -38.764000 505.406000
101.999000 -38.754000 505.265000
102.616000 -38.768000 505.447000
103.192000 -38.766000 505.423000
103.758000 -38.760000 505.354000
104.356000 -38.767000 505.439000
104.931000 -38.765000 505.417000
105.568000 -38.786000 505.686000
106.118000 -38.775000 505.543000
106.759000 -38.797000 505.828000
107.297000 -38.781000 505.626000
107.963000 -38.812000 506.026000
108.468000 -38.785000 505.670000
109.146000 -38.819000 506.123000
70.734000 -37.897000 501.613000
71.393000 -37.941000 502.192000
71.905000 -37.907000 501.745000
72.593000 -37.966000 502.516000
73.070000 -37.914000 501.831000
73.764000 -37.974000 502.629000
74.250000 -37.928000 502.019000
74.920000 -37.976000 502.646000
75.417000 -37.935000 502.108000
76.088000 -37.982000 502.736000
76.581000 -37.940000 502.179000
77.281000 -38.001000 502.987000
77.759000 -37.953000 502.344000
78.459000 -38.012000 503.132000
78.928000 -37.960000 502.440000
79.631000 -38.020000 503.235000
80.104000 -37.970000 502.577000
80.795000 -38.024000 503.290000
81.283000 -37.982000 502.733000
81.965000 -38.030000 503.372000
82.458000 -37.991000 502.855000
83.115000 -38.028000 503.337000
83.675000 -38.019000 503.228000
84.267000 -38.026000 503.317000
84.855000 -38.031000 503.377000
85.436000 -38.032000 503.389000
86.032000 -38.040000 503.497000
86.592000 -38.032000 503.389000
87.216000 -38.052000 503.659000
87.761000 -38.037000 503.463000
88.407000 -38.067000 503.851000
88.941000 -38.047000 503.598000
89.599000 -38.081000 504.047000
90.129000 -38.061000 503.775000
90.789000 -38.095000 504.230000
91.296000 -38.065000 503.834000
91.963000 -38.102000 504.319000
92.445000 -38.062000 503.787000
93.112000 -38.098000 504.266000
93.588000 -38.056000 503.714000
94.300000 -38.110000 504.426000
94.805000 -38.080000 504.033000
95.516000 -38.133000 504.731000
96.019000 -38.103000 504.331000
96.683000 -38.136000 504.773000
97.227000 -38.122000 504.589000
97.835000 -38.133000 504.734000
98.407000 -38.130000 504.694000
99.015000 -38.141000 504.842000
99.574000 -38.133000 504.736000
100.191000 -38.148000 504.925000
100.778000 -38.151000 504.963000
101.414000 -38.171000 505.239000
101.980000 -38.166000 505.170000
102.563000 -38.167000 505.184000
103.157000 -38.173000 505.254000
103.736000 -38.172000 505.246000
104.333000 -38.178000 505.328000
104.908000 -38.176000 505.305000
105.544000 -38.197000 505.571000
106.093000 -38.185000 505.421000
106.733000 -38.207000 505.706000
107.249000 -38.184000 505.400000
107.949000 -38.226000 505.958000
108.452000 -38.198000 505.596000
109.117000 -38.228000 505.986000
109.627000 -38.203000 505.660000
110.365000 -38.258000 506.382000
70.762000 -37.336000 501.808000
71.440000 -37.389000 502.527000
71.919000 -37.338000 501.837000
72.600000 -37.392000 502.566000
73.078000 -37.342000 501.886000
73.756000 -37.393000 502.579000
74.244000 -37.348000 501.972000
74.908000 -37.392000 502.562000
75.407000 -37.353000 502.040000
76.078000 -37.400000 502.670000
76.573000 -37.360000 502.131000
77.254000 -37.410000 502.808000
77.751000 -37.372000 502.293000
78.450000 -37.430000 503.074000
78.919000 -37.379000 502.380000
79.619000 -37.436000 503.157000
80.089000 -37.386000 502.486000
80.782000 -37.440000 503.209000
81.270000 -37.399000 502.652000
81.946000 -37.444000 503.257000
82.453000 -37.412000 502.824000
83.108000 -37.447000 503.294000
83.659000 -37.435000 503.134000
84.249000 -37.440000 503.207000
84.831000 -37.442000 503.230000
85.409000 -37.442000 503.231000
86.022000 -37.457000 503.437000
86.581000 -37.449000 503.325000
87.200000 -37.467000 503.564000
87.740000 -37.450000 503.346000
88.381000 -37.477000 503.706000
88.911000 -37.457000 503.429000
89.569000 -37.490000 503.882000
90.088000 -37.465000 503.545000
90.769000 -37.508000 504.118000
91.277000 -37.479000 503.725000
91.952000 -37.518000 504.259000
92.436000 -37.480000 503.737000
93.101000 -37.514000 504.206000
93.571000 -37.471000 503.619000
94.279000 -37.522000 504.313000
94.769000 -37.487000 503.842000
95.504000 -37.549000 504.670000
95.995000 -37.514000 504.204000
96.654000 -37.545000 504.619000
97.213000 -37.538000 504.518000
97.809000 -37.544000 504.603000
98.395000 -37.546000 504.633000
99.007000 -37.559000 504.800000
99.547000 -37.544000 504.598000
100.139000 -37.549000 504.665000
100.747000 -37.559000 504.805000
101.359000 -37.571000 504.967000
101.961000 -37.579000 505.076000
102.533000 -37.576000 505.038000
103.116000 -37.577000 505.052000
103.705000 -37.581000 505.099000
104.307000 -37.589000 505.203000
104.878000 -37.585000 505.158000
105.528000 -37.610000 505.494000
106.062000 -37.594000 505.275000
106.709000 -37.618000 505.592000
107.230000 -37.597000 505.310000
107.915000 -37.633000 505.801000
108.430000 -37.610000 505.493000
109.105000 -37.643000 505.933000
109.588000 -37.609000 505.480000
110.338000 -37.667000 506.258000
70.884000 -36.823000 502.673000
71.524000 -36.856000 503.117000
72.024000 -36.816000 502.574000
72.659000 -36.845000 502.972000
73.172000 -36.813000 502.532000
73.774000 -36.825000 502.699000
74.304000 -36.802000 502.382000
74.922000 -36.822000 502.659000
75.412000 -36.779000 502.074000
76.072000 -36.820000 502.629000
76.575000 -36.784000 502.141000
77.264000 -36.838000 502.871000
77.761000 -36.800000 502.353000
78.431000 -36.844000 502.954000
78.908000 -36.797000 502.312000
79.596000 -36.848000 503.011000
80.074000 -36.802000 502.387000
80.768000 -36.856000 503.119000
81.249000 -36.812000 502.522000
81.928000 -36.858000 503.145000
82.433000 -36.825000 502.703000
83.085000 -36.858000 503.153000
83.598000 -36.830000 502.769000
84.229000 -36.854000 503.089000
84.815000 -36.857000 503.136000
85.385000 -36.854000 503.089000
85.962000 -36.853000 503.087000
86.561000 -36.862000 503.209000
87.185000 -36.882000 503.480000
87.711000 -36.860000 503.180000
88.354000 -36.887000 503.550000
88.886000 -36.868000 503.292000
89.550000 -36.904000 503.771000
90.060000 -36.876000 503.390000
90.742000 -36.918000 503.967000
91.237000 -36.884000 503.507000
91.929000 -36.930000 504.128000
92.402000 -36.888000 503.552000
93.080000 -36.927000 504.095000
93.525000 -36.874000 503.372000
94.236000 -36.927000 504.086000
94.723000 -36.891000 503.598000
95.456000 -36.951000 504.413000
95.973000 -36.927000 504.090000
96.609000 -36.949000 504.385000
97.198000 -36.952000 504.437000
97.782000 -36.954000 504.462000
98.353000 -36.951000 504.422000
98.961000 -36.962000 504.568000
99.523000 -36.955000 504.477000
100.113000 -36.959000 504.532000
100.713000 -36.967000 504.637000
101.308000 -36.973000 504.712000
101.932000 -36.989000 504.934000
102.507000 -36.987000 504.909000
103.085000 -36.987000 504.903000
103.674000 -36.990000 504.945000
104.279000 -36.999000 505.067000
104.824000 -36.986000 504.901000
105.497000 -37.019000 505.348000
106.040000 -37.006000 505.166000
106.687000 -37.029000 505.485000
107.210000 -37.009000 505.215000
107.888000 -37.043000 505.676000
108.400000 -37.019000 505.352000
109.077000 -37.053000 505.804000
109.562000 -37.020000 505.361000
71.000000 -36.305000 503.495000
71.560000 -36.296000 503.367000
72.145000 -36.300000 503.416000
72.694000 -36.285000 503.214000
73.264000 -36.281000 503.160000
73.838000 -36.279000 503.133000
74.393000 -36.268000 502.981000
75.016000 -36.290000 503.285000
75.490000 -36.241000 502.597000
76.146000 -36.278000 503.118000
76.636000 -36.237000 502.543000
77.314000 -36.284000 503.198000
77.788000 -36.236000 502.531000
78.450000 -36.275000 503.071000
78.918000 -36.225000 502.377000
79.601000 -36.273000 503.049000
80.074000 -36.225000 502.387000
80.766000 -36.277000 503.106000
81.239000 -36.231000 502.461000
81.913000 -36.274000 503.055000
82.420000 -36.243000 502.626000
83.063000 -36.271000 503.021000
83.587000 -36.248000 502.699000
84.221000 -36.273000 503.041000
84.803000 -36.274000 503.065000
85.373000 -36.271000 503.019000
85.943000 -36.268000 502.977000
86.534000 -36.273000 503.052000
87.171000 -36.298000 503.396000
87.696000 -36.276000 503.094000
88.337000 -36.302000 503.456000
88.867000 -36.282000 503.180000
89.531000 -36.318000 503.669000
90.037000 -36.288000 503.260000
90.724000 -36.332000 503.867000
91.220000 -36.299000 503.413000
91.911000 -36.344000 504.033000
92.382000 -36.302000 503.444000
93.070000 -36.345000 504.041000
93.512000 -36.292000 503.306000
94.215000 -36.340000 503.972000
94.688000 -36.299000 503.411000
95.417000 -36.357000 504.206000
95.946000 -36.338000 503.943000
96.590000 -36.362000 504.289000
97.172000 -36.363000 504.303000
97.781000 -36.375000 504.459000
98.313000 -36.357000 504.215000
98.940000 -36.375000 504.459000
99.501000 -36.368000 504.364000
100.127000 -36.385000 504.604000
100.677000 -36.375000 504.456000
101.255000 -36.374000 504.451000
101.894000 -36.395000 504.743000
102.482000 -36.398000 504.786000
103.058000 -36.397000 504.767000
103.627000 -36.393000 504.717000
104.248000 -36.408000 504.916000
104.791000 -36.395000 504.739000
105.472000 -36.430000 505.226000
106.018000 -36.418000 505.063000
106.666000 -36.442000 505.388000
107.187000 -36.421000 505.107000
107.856000 -36.451000 505.523000
108.352000 -36.423000 505.129000
109.050000 -36.463000 505.678000
109.526000 -36.428000 505.194000
69.856000 -35.734000 503.588000
70.423000 -35.728000 503.504000
71.002000 -35.728000 503.510000
71.595000 -35.735000 503.613000
72.156000 -35.727000 503.496000
72.768000 -35.744000 503.729000
73.301000 -35.721000 503.413000
73.932000 -35.747000 503.776000
74.446000 -35.716000 503.343000
75.087000 -35.746000 503.767000
75.567000 -35.700000 503.110000
76.210000 -35.730000 503.539000
76.735000 -35.705000 503.189000
77.356000 -35.725000 503.471000
77.872000 -35.697000 503.073000
78.496000 -35.718000 503.367000
79.027000 -35.697000 503.067000
79.663000 -35.723000 503.440000
80.200000 -35.705000 503.179000
80.788000 -35.709000 503.245000
81.376000 -35.714000 503.305000
81.940000 -35.708000 503.222000
82.508000 -35.703000 503.161000
83.046000 -35.686000 502.919000
83.630000 -35.689000 502.957000
84.226000 -35.697000 503.072000
84.788000 -35.690000 502.977000
85.385000 -35.698000 503.091000
85.976000 -35.704000 503.170000
86.527000 -35.693000 503.016000
87.139000 -35.707000 503.213000
87.674000 -35.690000 502.967000
88.322000 -35.718000 503.369000
88.842000 -35.695000 503.042000
89.525000 -35.737000 503.631000
90.002000 -35.697000 503.065000
90.701000 -35.745000 503.742000
91.188000 -35.709000 503.238000
91.889000 -35.757000 503.912000
92.355000 -35.713000 503.296000
93.054000 -35.759000 503.952000
93.491000 -35.705000 503.188000
94.197000 -35.754000 503.876000
94.651000 -35.707000 503.212000
95.394000 -35.769000 504.086000
95.904000 -35.743000 503.726000
96.570000 -35.776000 504.181000
97.127000 -35.768000 504.066000
97.750000 -35.784000 504.297000
98.297000 -35.772000 504.133000
98.916000 -35.787000 504.335000
99.468000 -35.777000 504.201000
100.096000 -35.795000 504.446000
100.656000 -35.788000 504.350000
101.222000 -35.783000 504.287000
101.854000 -35.802000 504.549000
102.433000 -35.801000 504.543000
103.022000 -35.805000 504.591000
103.603000 -35.806000 504.602000
104.228000 -35.821000 504.823000
104.758000 -35.804000 504.580000
105.437000 -35.838000 505.058000
105.986000 -35.827000 504.910000
106.641000 -35.853000 505.266000
107.144000 -35.827000 504.903000
107.824000 -35.860000 505.375000
108.309000 -35.829000 504.930000
109.031000 -35.876000 505.590000
109.507000 -35.841000 505.105000
69.826000 -35.140000 503.368000
70.456000 -35.166000 503.744000
70.958000 -35.128000 503.200000
71.606000 -35.163000 503.691000
72.123000 -35.133000 503.263000
72.769000 -35.166000 503.735000
73.297000 -35.142000 503.390000
73.961000 -35.183000 503.978000
74.461000 -35.145000 503.444000
75.080000 -35.164000 503.714000
75.603000 -35.139000 503.349000
76.225000 -35.159000 503.637000
76.803000 -35.159000 503.640000
77.398000 -35.166000 503.745000
77.982000 -35.169000 503.780000
78.548000 -35.163000 503.700000
79.125000 -35.163000 503.691000
79.712000 -35.166000 503.745000
80.259000 -35.153000 503.547000
80.841000 -35.154000 503.573000
81.408000 -35.149000 503.502000
81.986000 -35.150000 503.506000
82.547000 -35.142000 503.401000
83.125000 -35.142000 503.398000
83.719000 -35.149000 503.496000
84.306000 -35.153000 503.547000
84.861000 -35.143000 503.409000
85.444000 -35.145000 503.440000
86.033000 -35.149000 503.502000
86.560000 -35.129000 503.207000
87.152000 -35.134000 503.285000
87.683000 -35.116000 503.019000
88.326000 -35.142000 503.389000
88.839000 -35.116000 503.025000
89.520000 -35.156000 503.602000
89.976000 -35.109000 502.921000
90.681000 -35.158000 503.630000
91.161000 -35.120000 503.086000
91.866000 -35.169000 503.785000
92.325000 -35.124000 503.136000
93.039000 -35.175000 503.873000
93.477000 -35.123000 503.117000
94.192000 -35.174000 503.849000
94.634000 -35.123000 503.123000
95.372000 -35.182000 503.973000
95.866000 -35.151000 503.527000
96.547000 -35.189000 504.062000
97.079000 -35.172000 503.822000
97.725000 -35.196000 504.165000
98.287000 -35.190000 504.082000
98.900000 -35.202000 504.254000
99.439000 -35.188000 504.052000
100.068000 -35.206000 504.307000
100.634000 -35.201000 504.240000
101.191000 -35.193000 504.130000
101.824000 -35.212000 504.400000
102.412000 -35.215000 504.442000
103.007000 -35.220000 504.520000
103.587000 -35.221000 504.521000
104.215000 -35.237000 504.758000
104.751000 -35.223000 504.550000
105.409000 -35.249000 504.927000
105.934000 -35.231000 504.666000
106.605000 -35.261000 505.095000
107.112000 -35.237000 504.751000
107.799000 -35.272000 505.257000
108.284000 -35.241000 504.813000
109.004000 -35.286000 505.464000
109.463000 -35.247000 504.904000
110.176000 -35.290000 505.517000
69.814000 -34.556000 503.283000
70.403000 -34.562000 503.364000
70.949000 -34.546000 503.136000
71.581000 -34.572000 503.513000
72.118000 -34.552000 503.228000
72.753000 -34.580000 503.623000
73.280000 -34.555000 503.270000
73.936000 -34.592000 503.805000
74.453000 -34.564000 503.391000
75.041000 -34.568000 503.459000
75.593000 -34.556000 503.281000
76.230000 -34.583000 503.672000
76.787000 -34.574000 503.534000
77.394000 -34.586000 503.719000
77.958000 -34.580000 503.629000
78.555000 -34.588000 503.745000
79.106000 -34.576000 503.569000
79.714000 -34.589000 503.759000
80.246000 -34.569000 503.471000
80.883000 -34.594000 503.838000
81.452000 -34.590000 503.777000
82.049000 -34.598000 503.893000
82.651000 -34.608000 504.035000
83.200000 -34.595000 503.855000
83.832000 -34.618000 504.176000
84.394000 -34.610000 504.073000
84.963000 -34.606000 504.013000
85.527000 -34.601000 503.928000
86.116000 -34.605000 503.987000
86.699000 -34.606000 504.012000
87.268000 -34.603000 503.959000
87.845000 -34.602000 503.946000
88.429000 -34.604000 503.980000
88.985000 -34.595000 503.852000
89.588000 -34.604000 503.985000
90.090000 -34.575000 503.558000
90.724000 -34.596000 503.868000
91.228000 -34.568000 503.454000
91.880000 -34.596000 503.864000
92.359000 -34.559000 503.319000
93.039000 -34.597000 503.870000
93.501000 -34.553000 503.243000
94.196000 -34.597000 503.872000
94.642000 -34.548000 503.164000
95.357000 -34.598000 503.893000
95.849000 -34.567000 503.436000
96.534000 -34.605000 503.995000
97.032000 -34.576000 503.577000
97.691000 -34.605000 503.990000
98.234000 -34.592000 503.809000
98.867000 -34.611000 504.085000
99.416000 -34.601000 503.934000
100.027000 -34.612000 504.098000
100.604000 -34.612000 504.091000
101.191000 -34.614000 504.129000
101.794000 -34.623000 504.248000
102.382000 -34.626000 504.293000
102.970000 -34.629000 504.338000
103.537000 -34.625000 504.280000
104.170000 -34.643000 504.540000
104.709000 -34.629000 504.346000
105.384000 -34.661000 504.805000
105.908000 -34.643000 504.541000
106.575000 -34.671000 504.957000
107.077000 -34.646000 504.590000
107.767000 -34.682000 505.109000
108.263000 -34.655000 504.715000
108.971000 -34.695000 505.309000
109.442000 -34.661000 504.805000
110.175000 -34.709000 505.513000
70.381000 -33.973000 503.201000
70.955000 -33.971000 503.173000
71.574000 -33.991000 503.465000
72.113000 -33.973000 503.197000
72.737000 -33.994000 503.511000
73.258000 -33.967000 503.119000
73.873000 -33.985000 503.377000
74.429000 -33.974000 503.223000
75.022000 -33.981000 503.326000
75.577000 -33.971000 503.172000
76.242000 -34.010000 503.754000
76.740000 -33.974000 503.221000
77.393000 -34.007000 503.714000
77.913000 -33.982000 503.336000
78.562000 -34.013000 503.789000
79.108000 -33.999000 503.585000
79.727000 -34.016000 503.844000
80.285000 -34.007000 503.714000
80.897000 -34.022000 503.924000
81.475000 -34.021000 503.922000
82.044000 -34.017000 503.859000
82.665000 -34.035000 504.118000
83.202000 -34.018000 503.867000
83.851000 -34.046000 504.288000
84.421000 -34.043000 504.235000
84.995000 -34.041000 504.204000
85.615000 -34.057000 504.449000
86.196000 -34.058000 504.459000
86.796000 -34.066000 504.577000
87.363000 -34.061000 504.506000
87.948000 -34.063000 504.541000
88.551000 -34.072000 504.674000
89.072000 -34.050000 504.340000
89.704000 -34.070000 504.637000
90.172000 -34.028000 504.016000
90.820000 -34.054000 504.400000
91.307000 -34.019000 503.890000
91.959000 -34.047000 504.294000
92.430000 -34.007000 503.704000
93.111000 -34.044000 504.262000
93.567000 -34.000000 503.598000
94.238000 -34.033000 504.095000
94.691000 -33.988000 503.428000
95.362000 -34.021000 503.917000
95.864000 -33.994000 503.513000
96.539000 -34.028000 504.021000
97.027000 -33.996000 503.550000
97.676000 -34.021000 503.913000
98.203000 -34.003000 503.652000
98.848000 -34.026000 503.988000
99.407000 -34.019000 503.892000
100.007000 -34.027000 504.000000
100.582000 -34.025000 503.978000
101.205000 -34.040000 504.200000
101.770000 -34.036000 504.131000
102.347000 -34.035000 504.121000
102.938000 -34.039000 504.182000
103.492000 -34.031000 504.058000
104.126000 -34.049000 504.326000
104.688000 -34.043000 504.243000
105.355000 -34.072000 504.665000
105.875000 -34.052000 504.381000
106.548000 -34.082000 504.825000
107.043000 -34.056000 504.430000
107.730000 -34.090000 504.932000
108.224000 -34.063000 504.532000
108.941000 -34.106000 505.174000
109.412000 -34.072000 504.667000
110.180000 -34.130000 505.533000
110.637000 -34.092000 504.971000
111.360000 -34.136000 505.619000
111.829000 -34.102000 505.117000
70.353000 -33.382000 503.006000
70.938000 -33.385000 503.055000
71.547000 -33.400000 503.277000
72.095000 -33.386000 503.070000
72.696000 -33.397000 503.230000
73.250000 -33.386000 503.065000
73.854000 -33.398000 503.247000
74.390000 -33.379000 502.961000
75.014000 -33.400000 503.273000
75.544000 -33.379000 502.957000
76.204000 -33.415000 503.502000
76.718000 -33.387000 503.080000
77.373000 -33.420000 503.581000
77.875000 -33.388000 503.089000
78.535000 -33.423000 503.619000
79.071000 -33.405000 503.347000
79.707000 -33.429000 503.719000
80.258000 -33.418000 503.544000
80.870000 -33.432000 503.753000
81.434000 -33.426000 503.664000
82.023000 -33.430000 503.729000
82.620000 -33.438000 503.842000
83.196000 -33.437000 503.827000
83.793000 -33.444000 503.941000
84.398000 -33.454000 504.095000
84.987000 -33.459000 504.159000
85.541000 -33.449000 504.011000
86.179000 -33.472000 504.357000
86.736000 -33.463000 504.231000
87.349000 -33.476000 504.425000
87.921000 -33.474000 504.386000
88.559000 -33.496000 504.717000
89.101000 -33.482000 504.505000
89.712000 -33.494000 504.687000
90.269000 -33.485000 504.559000
90.862000 -33.490000 504.634000
91.455000 -33.495000 504.711000
92.021000 -33.490000 504.633000
92.616000 -33.496000 504.719000
93.141000 -33.476000 504.426000
93.784000 -33.499000 504.769000
94.278000 -33.469000 504.312000
94.909000 -33.487000 504.586000
95.428000 -33.466000 504.267000
96.016000 -33.469000 504.312000
96.601000 -33.471000 504.342000
97.124000 -33.452000 504.055000
97.716000 -33.456000 504.123000
98.269000 -33.447000 503.987000
98.901000 -33.465000 504.259000
99.441000 -33.452000 504.063000
100.053000 -33.463000 504.230000
100.591000 -33.450000 504.024000
101.190000 -33.456000 504.124000
101.772000 -33.457000 504.140000
102.331000 -33.451000 504.042000
102.933000 -33.458000 504.158000
103.484000 -33.449000 504.021000
104.112000 -33.465000 504.259000
104.664000 -33.456000 504.127000
105.326000 -33.483000 504.526000
105.844000 -33.463000 504.233000
106.514000 -33.492000 504.664000
107.003000 -33.464000 504.242000
107.702000 -33.501000 504.802000
108.190000 -33.473000 504.374000
108.911000 -33.517000 505.034000
70.339000 -32.798000 502.906000
70.919000 -32.799000 502.925000
71.517000 -32.808000 503.068000
72.082000 -32.802000 502.976000
72.674000 -32.809000 503.077000
73.231000 -32.800000 502.933000
73.844000 -32.816000 503.178000
74.380000 -32.797000 502.895000
74.997000 -32.815000 503.163000
75.535000 -32.797000 502.892000
76.177000 -32.825000 503.323000
76.703000 -32.803000 502.980000
77.365000 -32.839000 503.528000
77.881000 -32.813000 503.129000
78.527000 -32.841000 503.565000
79.040000 -32.814000 503.150000
79.694000 -32.845000 503.634000
80.223000 -32.825000 503.327000
80.857000 -32.848000 503.672000
81.407000 -32.837000 503.498000
82.017000 -32.849000 503.693000
82.579000 -32.843000 503.594000
83.186000 -32.854000 503.769000
83.759000 -32.852000 503.736000
84.352000 -32.858000 503.823000
84.963000 -32.870000 504.012000
85.500000 -32.854000 503.767000
86.137000 -32.877000 504.113000
86.693000 -32.868000 503.980000
87.313000 -32.883000 504.216000
87.883000 -32.880000 504.165000
88.508000 -32.897000 504.429000
89.071000 -32.891000 504.337000
89.657000 -32.894000 504.373000
90.291000 -32.914000 504.680000
90.832000 -32.900000 504.467000
91.496000 -32.930000 504.934000
92.013000 -32.908000 504.592000
92.637000 -32.924000 504.836000
93.168000 -32.907000 504.572000
93.794000 -32.923000 504.821000
94.344000 -32.913000 504.664000
94.959000 -32.925000 504.851000
95.555000 -32.931000 504.940000
96.074000 -32.910000 504.619000
96.725000 -32.934000 504.992000
97.204000 -32.900000 504.467000
97.857000 -32.925000 504.848000
98.358000 -32.898000 504.444000
99.022000 -32.926000 504.877000
99.515000 -32.898000 504.438000
100.143000 -32.914000 504.683000
100.626000 -32.882000 504.201000
101.190000 -32.877000 504.125000
101.843000 -32.901000 504.490000
102.373000 -32.886000 504.250000
102.995000 -32.899000 504.458000
103.520000 -32.882000 504.196000
104.135000 -32.894000 504.373000
104.670000 -32.880000 504.160000
105.306000 -32.898000 504.433000
105.808000 -32.873000 504.062000
106.473000 -32.900000 504.474000
106.981000 -32.878000 504.134000
107.679000 -32.915000 504.693000
108.178000 -32.890000 504.317000
108.872000 -32.925000 504.851000
69.143000 -32.201000 502.604000
69.725000 -32.203000 502.639000
70.313000 -32.209000 502.721000
70.880000 -32.204000 502.648000
71.482000 -32.215000 502.821000
72.058000 -32.214000 502.812000
72.647000 -32.220000 502.891000
73.199000 -32.208000 502.715000
73.819000 -32.227000 503.005000
74.358000 -32.210000 502.746000
74.980000 -32.229000 503.043000
75.518000 -32.212000 502.781000
76.158000 -32.239000 503.194000
76.677000 -32.214000 502.813000
77.334000 -32.248000 503.331000
77.845000 -32.220000 502.899000
78.505000 -32.254000 503.426000
78.995000 -32.218000 502.866000
79.665000 -32.255000 503.449000
80.164000 -32.223000 502.953000
80.835000 -32.261000 503.535000
81.364000 -32.242000 503.235000
81.993000 -32.261000 503.545000
82.533000 -32.247000 503.314000
83.152000 -32.262000 503.561000
83.706000 -32.253000 503.414000
84.330000 -32.271000 503.690000
84.933000 -32.280000 503.836000
85.475000 -32.266000 503.622000
86.087000 -32.279000 503.820000
86.664000 -32.278000 503.811000
87.268000 -32.288000 503.956000
87.846000 -32.287000 503.951000
88.450000 -32.297000 504.099000
89.009000 -32.290000 503.986000
89.603000 -32.295000 504.070000
90.202000 -32.302000 504.182000
90.788000 -32.305000 504.222000
91.381000 -32.310000 504.300000
91.995000 -32.322000 504.493000
92.519000 -32.303000 504.192000
93.178000 -32.331000 504.627000
93.704000 -32.312000 504.336000
94.351000 -32.336000 504.702000
94.915000 -32.330000 504.616000
95.579000 -32.359000 505.064000
96.075000 -32.330000 504.621000
96.731000 -32.356000 505.021000
97.245000 -32.334000 504.680000
97.857000 -32.345000 504.850000
98.435000 -32.344000 504.840000
98.999000 -32.339000 504.758000
99.594000 -32.344000 504.836000
100.142000 -32.334000 504.677000
100.753000 -32.344000 504.836000
101.275000 -32.326000 504.548000
101.922000 -32.347000 504.885000
102.463000 -32.335000 504.691000
103.056000 -32.339000 504.761000
103.594000 -32.326000 504.556000
104.200000 -32.334000 504.686000
104.723000 -32.317000 504.414000
105.335000 -32.327000 504.569000
105.818000 -32.298000 504.113000
106.468000 -32.319000 504.449000
107.000000 -32.305000 504.226000
107.666000 -32.331000 504.635000
108.177000 -32.311000 504.313000
108.841000 -32.336000 504.709000
69.129000 -31.618000 502.501000
69.680000 -31.606000 502.319000
70.305000 -31.628000 502.660000
70.856000 -31.616000 502.473000
71.449000 -31.623000 502.585000
72.043000 -31.631000 502.709000
72.634000 -31.636000 502.801000
73.182000 -31.624000 502.597000
73.796000 -31.639000 502.848000
74.349000 -31.629000 502.687000
74.975000 -31.650000 503.009000
75.507000 -31.631000 502.709000
76.152000 -31.659000 503.154000
76.665000 -31.632000 502.733000
77.319000 -31.663000 503.231000
77.826000 -31.635000 502.776000
78.493000 -31.671000 503.351000
78.983000 -31.636000 502.790000
79.651000 -31.672000 503.363000
80.146000 -31.639000 502.841000
80.821000 -31.677000 503.451000
81.328000 -31.649000 503.006000
81.982000 -31.679000 503.479000
82.505000 -31.658000 503.140000
83.125000 -31.674000 503.397000
83.675000 -31.663000 503.231000
84.313000 -31.686000 503.590000
84.908000 -31.692000 503.690000
85.463000 -31.684000 503.550000
86.047000 -31.686000 503.585000
86.633000 -31.689000 503.629000
87.238000 -31.698000 503.786000
87.813000 -31.697000 503.761000
88.421000 -31.707000 503.931000
88.975000 -31.699000 503.795000
89.572000 -31.705000 503.898000
90.144000 -31.703000 503.860000
90.759000 -31.716000 504.060000
91.322000 -31.710000 503.976000
91.976000 -31.736000 504.388000
92.446000 -31.699000 503.795000
93.127000 -31.734000 504.351000
93.633000 -31.709000 503.953000
94.270000 -31.729000 504.266000
94.835000 -31.724000 504.190000
95.455000 -31.737000 504.408000
96.012000 -31.730000 504.292000
96.616000 -31.738000 504.422000
97.228000 -31.749000 504.592000
97.729000 -31.724000 504.188000
98.441000 -31.767000 504.869000
98.935000 -31.739000 504.436000
99.622000 -31.773000 504.979000
100.134000 -31.752000 504.637000
100.772000 -31.770000 504.930000
101.322000 -31.761000 504.781000
101.927000 -31.769000 504.907000
102.450000 -31.752000 504.631000
103.047000 -31.757000 504.715000
103.577000 -31.742000 504.476000
104.259000 -31.773000 504.971000
104.762000 -31.750000 504.603000
105.423000 -31.774000 504.989000
105.906000 -31.745000 504.532000
106.560000 -31.768000 504.885000
107.091000 -31.753000 504.653000
107.743000 -31.774000 504.992000
108.245000 -31.751000 504.630000
108.927000 -31.781000 505.106000
109.404000 -31.752000 504.631000
69.110000 -31.032000 502.365000
69.639000 -31.011000 502.018000
70.281000 -31.040000 502.488000
70.828000 -31.027000 502.279000
71.430000 -31.037000 502.451000
72.005000 -31.037000 502.438000
72.596000 -31.043000 502.535000
73.148000 -31.032000 502.368000
73.765000 -31.049000 502.641000
74.317000 -31.039000 502.471000
74.955000 -31.064000 502.879000
75.491000 -31.047000 502.603000
76.129000 -31.071000 503.002000
76.653000 -31.050000 502.650000
77.301000 -31.078000 503.115000
77.799000 -31.047000 502.600000
78.471000 -31.084000 503.210000
78.962000 -31.050000 502.656000
79.633000 -31.087000 503.251000
80.127000 -31.054000 502.722000
80.794000 -31.089000 503.280000
81.300000 -31.061000 502.836000
81.962000 -31.093000 503.358000
82.470000 -31.067000 502.926000
83.107000 -31.089000 503.290000
83.639000 -31.072000 503.012000
84.282000 -31.096000 503.404000
84.860000 -31.096000 503.404000
85.443000 -31.098000 503.434000
86.020000 -31.098000 503.426000
86.601000 -31.099000 503.444000
87.195000 -31.104000 503.534000
87.763000 -31.101000 503.478000
88.392000 -31.119000 503.769000
88.936000 -31.107000 503.570000
89.545000 -31.117000 503.746000
90.101000 -31.110000 503.618000
90.722000 -31.124000 503.858000
91.278000 -31.116000 503.730000
91.911000 -31.135000 504.031000
92.449000 -31.121000 503.812000
93.086000 -31.141000 504.124000
93.620000 -31.126000 503.887000
94.229000 -31.136000 504.046000
94.784000 -31.128000 503.922000
95.398000 -31.140000 504.109000
95.971000 -31.138000 504.080000
96.568000 -31.144000 504.174000
97.163000 -31.149000 504.258000
97.732000 -31.146000 504.204000
98.320000 -31.149000 504.250000
98.883000 -31.144000 504.171000
99.544000 -31.169000 504.586000
100.083000 -31.157000 504.383000
100.689000 -31.165000 504.515000
101.242000 -31.157000 504.382000
101.880000 -31.175000 504.678000
102.384000 -31.152000 504.306000
103.003000 -31.164000 504.497000
103.548000 -31.154000 504.333000
104.275000 -31.198000 505.049000
104.762000 -31.170000 504.601000
105.417000 -31.193000 504.964000
105.946000 -31.178000 504.723000
106.570000 -31.191000 504.931000
107.136000 -31.187000 504.865000
107.736000 -31.192000 504.961000
108.351000 -31.203000 505.127000
108.924000 -31.201000 505.092000
109.502000 -31.200000 505.082000
69.100000 -30.451000 502.295000
69.610000 -30.422000 501.812000
70.243000 -30.446000 502.218000
70.811000 -30.443000 502.156000
71.416000 -30.455000 502.357000
71.985000 -30.451000 502.299000
72.584000 -30.461000 502.454000
73.131000 -30.448000 502.249000
73.750000 -30.466000 502.534000
74.305000 -30.457000 502.387000
74.943000 -30.482000 502.799000
75.485000 -30.467000 502.564000
76.121000 -30.491000 502.954000
76.639000 -30.467000 502.560000
77.290000 -30.496000 503.040000
77.786000 -30.464000 502.513000
78.449000 -30.498000 503.068000
78.950000 -30.468000 502.582000
79.622000 -30.505000 503.177000
80.114000 -30.472000 502.640000
80.780000 -30.506000 503.194000
81.281000 -30.477000 502.717000
81.950000 -30.511000 503.282000
82.460000 -30.486000 502.870000
83.101000 -30.509000 503.252000
83.629000 -30.491000 502.954000
84.261000 -30.511000 503.278000
84.825000 -30.506000 503.198000
85.421000 -30.512000 503.304000
85.994000 -30.510000 503.272000
86.575000 -30.512000 503.294000
87.170000 -30.517000 503.390000
87.733000 -30.512000 503.308000
88.361000 -30.530000 503.592000
88.890000 -30.513000 503.314000
89.506000 -30.526000 503.527000
90.063000 -30.519000 503.409000
90.687000 -30.534000 503.661000
91.238000 -30.525000 503.511000
91.876000 -30.545000 503.841000
92.434000 -30.538000 503.727000
93.060000 -30.554000 503.987000
93.600000 -30.541000 503.777000
94.203000 -30.549000 503.906000
94.749000 -30.538000 503.737000
95.363000 -30.550000 503.922000
95.928000 -30.546000 503.854000
96.530000 -30.553000 503.975000
97.113000 -30.554000 503.995000
97.746000 -30.571000 504.277000
98.291000 -30.561000 504.103000
98.866000 -30.559000 504.083000
99.479000 -30.570000 504.256000
100.063000 -30.571000 504.278000
100.631000 -30.568000 504.225000
101.184000 -30.560000 504.094000
101.799000 -30.571000 504.273000
102.325000 -30.555000 504.011000
102.977000 -30.577000 504.372000
103.549000 -30.575000 504.339000
104.219000 -30.602000 504.779000
104.710000 -30.576000 504.353000
105.372000 -30.600000 504.747000
105.906000 -30.587000 504.530000
106.519000 -30.596000 504.690000
107.085000 -30.592000 504.627000
107.674000 -30.595000 504.672000
108.276000 -30.601000 504.776000
108.873000 -30.606000 504.855000
109.399000 -30.591000 504.611000
110.088000 -30.622000 505.111000
69.100000 -29.874000 502.295000
69.594000 -29.839000 501.698000
70.235000 -29.866000 502.163000
70.769000 -29.848000 501.860000
71.387000 -29.866000 502.153000
71.953000 -29.861000 502.074000
72.563000 -29.875000 502.313000
73.104000 -29.861000 502.064000
73.728000 -29.880000 502.388000
74.287000 -29.872000 502.263000
74.910000 -29.891000 502.579000
75.468000 -29.883000 502.448000
76.101000 -29.906000 502.821000
76.622000 -29.883000 502.447000
77.266000 -29.910000 502.888000
77.769000 -29.881000 502.403000
78.436000 -29.915000 502.981000
78.930000 -29.884000 502.455000
79.605000 -29.920000 503.070000
80.094000 -29.887000 502.515000
80.758000 -29.920000 503.058000
81.260000 -29.892000 502.591000
81.918000 -29.921000 503.088000
82.444000 -29.903000 502.771000
83.092000 -29.928000 503.197000
83.632000 -29.915000 502.974000
84.233000 -29.923000 503.111000
84.807000 -29.921000 503.088000
85.390000 -29.923000 503.119000
85.985000 -29.929000 503.222000
86.557000 -29.927000 503.190000
87.152000 -29.933000 503.288000
87.703000 -29.924000 503.134000
88.323000 -29.938000 503.374000
88.861000 -29.925000 503.145000
89.474000 -29.937000 503.347000
90.015000 -29.925000 503.141000
90.647000 -29.942000 503.439000
91.194000 -29.932000 503.270000
91.849000 -29.957000 503.694000
92.402000 -29.949000 503.551000
93.036000 -29.967000 503.858000
93.570000 -29.953000 503.618000
94.178000 -29.962000 503.776000
94.717000 -29.950000 503.566000
95.335000 -29.962000 503.774000
95.887000 -29.954000 503.636000
96.497000 -29.964000 503.800000
97.069000 -29.962000 503.768000
97.679000 -29.971000 503.929000
98.255000 -29.971000 503.916000
98.837000 -29.972000 503.934000
99.426000 -29.975000 503.984000
99.998000 -29.973000 503.950000
100.592000 -29.977000 504.030000
101.165000 -29.976000 504.001000
101.772000 -29.984000 504.141000
102.338000 -29.980000 504.075000
102.966000 -29.995000 504.319000
103.533000 -29.991000 504.257000
104.157000 -30.004000 504.479000
104.682000 -29.988000 504.214000
105.349000 -30.014000 504.638000
69.093000 -29.294000 502.238000
69.573000 -29.254000 501.542000
70.242000 -29.293000 502.212000
70.735000 -29.258000 501.620000
71.378000 -29.285000 502.085000
71.932000 -29.276000 501.930000
72.552000 -29.294000 502.233000
73.090000 -29.278000 501.969000
73.717000 -29.298000 502.311000
74.275000 -29.291000 502.184000
74.898000 -29.309000 502.495000
75.453000 -29.301000 502.348000
76.090000 -29.324000 502.750000
76.615000 -29.304000 502.407000
77.237000 -29.321000 502.695000
77.760000 -29.301000 502.351000
78.416000 -29.330000 502.856000
78.918000 -29.302000 502.378000
79.577000 -29.333000 502.896000
80.081000 -29.306000 502.434000
80.745000 -29.337000 502.973000
81.245000 -29.309000 502.496000
81.903000 -29.338000 502.992000
82.425000 -29.318000 502.652000
83.080000 -29.346000 503.128000
83.623000 -29.334000 502.915000
84.208000 -29.337000 502.964000
84.787000 -29.337000 502.972000
85.369000 -29.338000 502.997000
85.962000 -29.344000 503.088000
86.536000 -29.342000 503.064000
87.132000 -29.349000 503.173000
87.683000 -29.340000 503.017000
88.292000 -29.350000 503.199000
88.833000 -29.338000 502.991000
89.451000 -29.351000 503.218000
89.988000 -29.338000 502.990000
90.622000 -29.356000 503.303000
91.169000 -29.346000 503.131000
91.819000 -29.369000 503.525000
92.364000 -29.359000 503.346000
93.003000 -29.378000 503.675000
93.533000 -29.363000 503.418000
94.149000 -29.375000 503.618000
94.683000 -29.361000 503.384000
95.301000 -29.373000 503.595000
95.844000 -29.362000 503.410000
96.461000 -29.374000 503.613000
97.018000 -29.368000 503.504000
97.637000 -29.380000 503.712000
98.208000 -29.378000 503.677000
98.814000 -29.386000 503.817000
99.393000 -29.386000 503.819000
99.979000 -29.388000 503.855000
100.571000 -29.392000 503.922000
101.147000 -29.392000 503.909000
101.737000 -29.395000 503.970000
102.309000 -29.393000 503.934000
102.918000 -29.402000 504.082000
103.499000 -29.402000 504.093000
104.108000 -29.411000 504.239000
104.628000 -29.394000 503.957000
105.328000 -29.428000 504.539000
69.073000 -28.709000 502.097000
69.551000 -28.669000 501.385000
70.224000 -28.708000 502.081000
70.709000 -28.672000 501.436000
71.361000 -28.702000 501.972000
71.906000 -28.690000 501.750000
72.532000 -28.709000 502.097000
73.065000 -28.692000 501.798000
73.688000 -28.711000 502.117000
74.258000 -28.708000 502.072000
74.876000 -28.724000 502.349000
75.436000 -28.717000 502.235000
76.069000 -28.738000 502.606000
76.600000 -28.721000 502.306000
77.225000 -28.739000 502.620000
77.764000 -28.725000 502.373000
78.364000 -28.734000 502.523000
78.891000 -28.715000 502.201000
79.511000 -28.731000 502.475000
80.059000 -28.721000 502.295000
80.700000 -28.743000 502.692000
81.228000 -28.726000 502.389000
81.867000 -28.748000 502.771000
82.409000 -28.736000 502.558000
83.052000 -28.758000 502.955000
83.594000 -28.746000 502.744000
84.209000 -28.759000 502.966000
84.761000 -28.750000 502.814000
85.348000 -28.754000 502.874000
85.921000 -28.752000 502.846000
86.490000 -28.750000 502.801000
87.109000 -28.763000 503.038000
87.661000 -28.755000 502.892000
88.273000 -28.766000 503.087000
88.809000 -28.753000 502.853000
89.428000 -28.766000 503.086000
89.965000 -28.753000 502.861000
90.600000 -28.771000 503.180000
91.143000 -28.760000 502.986000
91.796000 -28.784000 503.400000
92.331000 -28.770000 503.165000
92.974000 -28.791000 503.518000
93.504000 -28.776000 503.260000
94.138000 -28.793000 503.560000
94.657000 -28.775000 503.244000
95.281000 -28.789000 503.492000
95.813000 -28.775000 503.246000
96.435000 -28.788000 503.480000
96.978000 -28.778000 503.293000
97.606000 -28.793000 503.554000
98.166000 -28.787000 503.458000
98.788000 -28.800000 503.684000
99.365000 -28.800000 503.680000
99.993000 -28.814000 503.927000
100.547000 -28.807000 503.805000
101.122000 -28.806000 503.785000
101.704000 -28.807000 503.805000
102.264000 -28.802000 503.710000
102.868000 -28.809000 503.839000
103.416000 -28.800000 503.690000
104.070000 -28.821000 504.057000
104.585000 -28.804000 503.748000
105.259000 -28.830000 504.206000
68.398000 -28.093000 501.378000
69.063000 -28.129000 502.022000
69.552000 -28.094000 501.396000
70.213000 -28.128000 502.003000
70.705000 -28.094000 501.401000
71.357000 -28.124000 501.941000
71.890000 -28.107000 501.638000
72.513000 -28.125000 501.963000
73.050000 -28.110000 501.695000
73.677000 -28.130000 502.043000
74.239000 -28.124000 501.941000
74.860000 -28.141000 502.240000
75.423000 -28.136000 502.150000
76.042000 -28.152000 502.432000
76.590000 -28.141000 502.243000
77.214000 -28.158000 502.545000
77.756000 -28.145000 502.320000
78.328000 -28.144000 502.292000
78.876000 -28.134000 502.109000
79.472000 -28.140000 502.232000
80.047000 -28.140000 502.218000
80.643000 -28.146000 502.338000
81.217000 -28.146000 502.324000
81.840000 -28.162000 502.610000
82.397000 -28.155000 502.487000
83.024000 -28.171000 502.786000
83.571000 -28.161000 502.607000
84.189000 -28.175000 502.851000
84.749000 -28.169000 502.744000
85.333000 -28.171000 502.786000
85.899000 -28.168000 502.717000
86.463000 -28.163000 502.642000
87.092000 -28.180000 502.940000
87.629000 -28.167000 502.709000
88.247000 -28.180000 502.942000
88.783000 -28.167000 502.704000
89.407000 -28.182000 502.968000
89.946000 -28.170000 502.752000
90.585000 -28.189000 503.098000
91.123000 -28.177000 502.877000
91.773000 -28.199000 503.278000
92.298000 -28.183000 502.988000
92.947000 -28.204000 503.376000
93.470000 -28.188000 503.077000
94.120000 -28.209000 503.463000
94.633000 -28.190000 503.120000
95.265000 -28.206000 503.407000
95.785000 -28.189000 503.099000
96.412000 -28.204000 503.360000
96.942000 -28.190000 503.111000
97.583000 -28.208000 503.434000
98.128000 -28.198000 503.264000
98.761000 -28.214000 503.545000
99.330000 -28.211000 503.499000
99.971000 -28.229000 503.819000
100.521000 -28.221000 503.676000
101.105000 -28.223000 503.703000
101.677000 -28.221000 503.669000
102.231000 -28.214000 503.550000
102.837000 -28.222000 503.686000
103.394000 -28.216000 503.581000
104.045000 -28.236000 503.935000
104.558000 -28.218000 503.617000
105.219000 -28.240000 504.014000
105.789000 -28.238000 503.975000
106.441000 -28.258000 504.322000
68.383000 -27.511000 501.267000
69.035000 -27.541000 501.823000
69.531000 -27.509000 501.242000
70.200000 -27.546000 501.911000
70.690000 -27.513000 501.300000
71.327000 -27.536000 501.732000
71.859000 -27.519000 501.423000
72.495000 -27.542000 501.835000
73.032000 -27.527000 501.568000
73.656000 -27.545000 501.896000
74.218000 -27.540000 501.802000
74.827000 -27.552000 502.017000
75.404000 -27.552000 502.026000
76.007000 -27.562000 502.200000
76.568000 -27.556000 502.093000
77.176000 -27.568000 502.303000
77.728000 -27.559000 502.141000
78.299000 -27.557000 502.106000
78.868000 -27.554000 502.057000
79.424000 -27.547000 501.925000
80.029000 -27.557000 502.105000
80.587000 -27.551000 501.992000
81.196000 -27.562000 502.196000
81.791000 -27.568000 502.306000
82.380000 -27.572000 502.378000
82.989000 -27.583000 502.576000
83.555000 -27.579000 502.511000
84.165000 -27.590000 502.702000
84.725000 -27.584000 502.603000
85.305000 -27.585000 502.621000
85.877000 -27.583000 502.590000
86.435000 -27.577000 502.479000
87.065000 -27.594000 502.785000
87.606000 -27.583000 502.578000
88.222000 -27.595000 502.796000
88.765000 -27.584000 502.606000
89.379000 -27.596000 502.814000
89.921000 -27.585000 502.612000
90.562000 -27.604000 502.970000
91.106000 -27.594000 502.785000
91.753000 -27.615000 503.163000
92.272000 -27.597000 502.843000
92.926000 -27.620000 503.259000
93.444000 -27.602000 502.936000
94.098000 -27.625000 503.348000
94.607000 -27.605000 502.981000
95.251000 -27.624000 503.329000
95.759000 -27.604000 502.964000
96.394000 -27.620000 503.263000
96.914000 -27.604000 502.963000
97.562000 -27.624000 503.327000
98.097000 -27.612000 503.105000
98.734000 -27.628000 503.410000
99.286000 -27.621000 503.276000
99.916000 -27.635000 503.538000
100.496000 -27.636000 503.546000
101.082000 -27.638000 503.589000
101.660000 -27.638000 503.587000
102.243000 -27.639000 503.611000
102.799000 -27.633000 503.500000
103.360000 -27.629000 503.418000
104.011000 -27.648000 503.769000
104.548000 -27.637000 503.570000
105.219000 -27.662000 504.015000
105.717000 -27.640000 503.629000
106.410000 -27.670000 504.174000
68.391000 -26.938000 501.321000
69.037000 -26.966000 501.833000
69.530000 -26.933000 501.235000
70.186000 -26.964000 501.809000
70.692000 -26.937000 501.308000
71.327000 -26.960000 501.731000
71.845000 -26.938000 501.326000
72.482000 -26.961000 501.748000
73.023000 -26.948000 501.509000
73.644000 -26.964000 501.813000
74.208000 -26.960000 501.731000
74.811000 -26.970000 501.915000
75.390000 -26.971000 501.933000
81.743000 -26.975000 502.013000
82.361000 -26.989000 502.265000
82.963000 -26.997000 502.419000
83.538000 -26.996000 502.404000
84.131000 -27.002000 502.505000
84.710000 -27.002000 502.514000
85.274000 -26.998000 502.439000
85.857000 -27.000000 502.475000
86.417000 -26.995000 502.376000
87.043000 -27.010000 502.659000
87.587000 -27.000000 502.466000
88.200000 -27.011000 502.675000
88.749000 -27.002000 502.514000
89.362000 -27.013000 502.715000
89.906000 -27.003000 502.528000
90.542000 -27.021000 502.858000
91.079000 -27.009000 502.634000
91.722000 -27.028000 502.996000
92.244000 -27.012000 502.692000
92.898000 -27.034000 503.110000
93.418000 -27.018000 502.800000
94.066000 -27.038000 503.178000
94.579000 -27.019000 502.829000
95.223000 -27.038000 503.182000
95.737000 -27.020000 502.849000
96.367000 -27.035000 503.122000
96.888000 -27.019000 502.826000
97.532000 -27.038000 503.172000
98.072000 -27.027000 502.978000
98.700000 -27.041000 503.235000
99.256000 -27.035000 503.127000
99.887000 -27.049000 503.391000
100.462000 -27.049000 503.380000
101.062000 -27.055000 503.489000
101.638000 -27.054000 503.478000
102.228000 -27.057000 503.535000
102.772000 -27.048000 503.369000
103.336000 -27.044000 503.299000
103.971000 -27.059000 503.574000
104.508000 -27.049000 503.378000
105.188000 -27.075000 503.868000
105.690000 -27.055000 503.502000
106.382000 -27.084000 504.043000
106.853000 -27.057000 503.535000
107.542000 -27.085000 504.052000
107.976000 -27.049000 503.379000
108.703000 -27.086000 504.069000
109.133000 -27.049000 503.381000
109.870000 -27.088000 504.109000
68.528000 -26.415000 502.328000
69.112000 -26.418000 502.381000
69.647000 -26.402000 502.081000
70.255000 -26.414000 502.306000
70.798000 -26.401000 502.062000
71.374000 -26.401000 502.063000
71.914000 -26.388000 501.802000
72.500000 -26.391000 501.871000
