98.165000 -77.556000 460.104000
98.702000 -77.562000 460.141000
99.202000 -77.540000 460.012000
99.723000 -77.534000 459.978000
100.205000 -77.499000 459.766000
100.672000 -77.452000 459.490000
101.147000 -77.412000 459.250000
101.670000 -77.408000 459.228000
102.192000 -77.404000 459.204000
102.720000 -77.404000 459.208000
103.244000 -77.402000 459.195000
103.810000 -77.431000 459.363000
104.404000 -77.480000 459.656000
104.990000 -77.523000 459.913000
105.558000 -77.553000 460.089000
106.050000 -77.526000 459.929000
106.622000 -77.558000 460.117000
107.146000 -77.555000 460.100000
107.730000 -77.595000 460.338000
108.265000 -77.600000 460.367000
108.865000 -77.651000 460.669000
109.429000 -77.676000 460.816000
110.034000 -77.729000 461.134000
110.588000 -77.746000 461.236000
111.232000 -77.826000 461.711000
111.799000 -77.852000 461.860000
112.454000 -77.938000 462.375000
113.018000 -77.961000 462.509000
113.706000 -78.069000 463.147000
114.330000 -78.132000 463.522000
115.013000 -78.234000 464.132000
115.658000 -78.310000 464.580000
116.375000 -78.434000 465.316000
87.309000 -78.187000 467.030000
87.756000 -78.107000 466.556000
88.171000 -78.000000 465.917000
88.622000 -77.927000 465.479000
89.092000 -77.871000 465.143000
89.532000 -77.788000 464.651000
89.988000 -77.721000 464.251000
90.455000 -77.665000 463.914000
90.910000 -77.598000 463.515000
91.376000 -77.543000 463.183000
91.851000 -77.494000 462.892000
92.305000 -77.429000 462.505000
92.798000 -77.398000 462.318000
93.257000 -77.338000 461.960000
93.748000 -77.305000 461.765000
94.221000 -77.259000 461.487000
94.720000 -77.233000 461.335000
95.196000 -77.189000 461.073000
95.700000 -77.169000 460.953000
96.165000 -77.118000 460.646000
96.680000 -77.107000 460.580000
97.153000 -77.063000 460.315000
97.701000 -77.078000 460.405000
98.178000 -77.037000 460.161000
98.721000 -77.048000 460.231000
99.217000 -77.023000 460.079000
99.754000 -77.030000 460.118000
100.223000 -76.984000 459.849000
100.698000 -76.944000 459.606000
101.183000 -76.911000 459.412000
101.706000 -76.908000 459.390000
102.217000 -76.896000 459.319000
102.752000 -76.901000 459.352000
103.292000 -76.911000 459.408000
103.842000 -76.928000 459.509000
104.455000 -76.990000 459.883000
104.988000 -76.994000 459.904000
105.563000 -77.028000 460.108000
106.062000 -77.006000 459.979000
106.637000 -77.040000 460.182000
107.169000 -77.043000 460.199000
107.749000 -77.080000 460.420000
108.294000 -77.091000 460.487000
108.893000 -77.141000 460.785000
109.459000 -77.168000 460.942000
110.054000 -77.213000 461.215000
110.626000 -77.243000 461.392000
111.261000 -77.316000 461.832000
111.823000 -77.338000 461.959000
112.495000 -77.435000 462.543000
113.051000 -77.452000 462.643000
113.734000 -77.556000 463.262000
114.364000 -77.623000 463.662000
115.049000 -77.726000 464.278000
115.686000 -77.795000 464.692000
116.421000 -77.930000 465.499000
87.320000 -77.660000 467.088000
87.772000 -77.586000 466.642000
88.192000 -77.484000 466.028000
88.644000 -77.412000 465.595000
89.105000 -77.348000 465.210000
89.545000 -77.266000 464.720000
90.005000 -77.204000 464.342000
90.471000 -77.146000 463.997000
90.926000 -77.080000 463.600000
91.392000 -77.024000 463.263000
91.867000 -76.976000 462.976000
92.330000 -76.919000 462.632000
92.826000 -76.890000 462.455000
93.284000 -76.830000 462.096000
93.781000 -76.802000 461.928000
94.247000 -76.750000 461.614000
94.743000 -76.722000 461.448000
95.216000 -76.676000 461.172000
95.724000 -76.660000 461.070000
96.191000 -76.610000 460.771000
96.701000 -76.594000 460.677000
97.173000 -76.549000 460.408000
97.712000 -76.557000 460.455000
98.202000 -76.528000 460.276000
98.744000 -76.538000 460.340000
99.238000 -76.511000 460.177000
99.759000 -76.506000 460.145000
100.239000 -76.469000 459.922000
100.717000 -76.431000 459.694000
101.216000 -76.409000 459.561000
101.730000 -76.399000 459.501000
102.251000 -76.393000 459.469000
102.788000 -76.400000 459.511000
103.330000 -76.411000 459.576000
103.896000 -76.439000 459.746000
104.460000 -76.466000 459.904000
105.006000 -76.479000 459.983000
105.566000 -76.502000 460.121000
106.091000 -76.499000 460.107000
106.651000 -76.522000 460.243000
107.180000 -76.522000 460.246000
107.771000 -76.567000 460.512000
108.313000 -76.576000 460.570000
108.902000 -76.619000 460.825000
109.466000 -76.643000 460.970000
110.078000 -76.701000 461.318000
110.657000 -76.735000 461.522000
111.288000 -76.804000 461.941000
111.852000 -76.828000 462.082000
112.519000 -76.921000 462.640000
113.079000 -76.940000 462.760000
113.759000 -77.041000 463.364000
114.392000 -77.109000 463.775000
115.076000 -77.211000 464.384000
115.728000 -77.290000 464.861000
116.469000 -77.428000 465.693000
87.346000 -77.147000 467.231000
87.788000 -77.064000 466.729000
88.212000 -76.966000 466.133000
88.675000 -76.904000 465.758000
89.129000 -76.834000 465.335000
89.564000 -76.749000 464.816000
90.038000 -76.698000 464.510000
90.494000 -76.633000 464.116000
90.938000 -76.558000 463.660000
91.416000 -76.512000 463.384000
91.890000 -76.464000 463.094000
92.350000 -76.404000 462.732000
92.847000 -76.376000 462.560000
93.307000 -76.318000 462.209000
93.804000 -76.290000 462.042000
94.257000 -76.228000 461.662000
94.762000 -76.207000 461.538000
95.236000 -76.163000 461.271000
95.742000 -76.144000 461.155000
96.214000 -76.098000 460.877000
96.735000 -76.092000 460.842000
97.205000 -76.046000 460.559000
97.738000 -76.049000 460.580000
98.227000 -76.018000 460.392000
98.766000 -76.026000 460.442000
99.252000 -75.993000 460.242000
99.767000 -75.983000 460.181000
100.255000 -75.952000 459.993000
100.756000 -75.932000 459.869000
101.267000 -75.920000 459.795000
101.772000 -75.902000 459.690000
102.300000 -75.902000 459.689000
102.827000 -75.901000 459.686000
103.377000 -75.918000 459.784000
103.914000 -75.925000 459.826000
104.492000 -75.961000 460.044000
105.021000 -75.962000 460.051000
105.598000 -75.997000 460.263000
106.114000 -75.988000 460.208000
106.689000 -76.021000 460.407000
107.225000 -76.026000 460.441000
107.805000 -76.062000 460.660000
108.343000 -76.069000 460.699000
108.932000 -76.110000 460.949000
109.501000 -76.138000 461.117000
110.102000 -76.187000 461.417000
110.672000 -76.215000 461.584000
111.321000 -76.297000 462.081000
111.881000 -76.317000 462.200000
112.535000 -76.400000 462.707000
113.136000 -76.447000 462.992000
113.794000 -76.533000 463.509000
114.412000 -76.590000 463.857000
115.114000 -76.703000 464.538000
115.774000 -76.787000 465.047000
116.505000 -76.917000 465.836000
87.372000 -76.634000 467.369000
87.815000 -76.551000 466.869000
88.244000 -76.459000 466.307000
88.707000 -76.397000 465.924000
89.153000 -76.321000 465.462000
89.585000 -76.233000 464.929000
90.061000 -76.184000 464.630000
90.517000 -76.119000 464.230000
90.962000 -76.046000 463.783000
91.440000 -76.000000 463.504000
91.914000 -75.952000 463.212000
92.372000 -75.892000 462.844000
92.864000 -75.859000 462.647000
93.322000 -75.800000 462.284000
93.826000 -75.778000 462.151000
94.287000 -75.722000 461.809000
94.790000 -75.700000 461.677000
95.268000 -75.658000 461.422000
95.771000 -75.638000 461.295000
96.242000 -75.592000 461.015000
96.766000 -75.587000 460.989000
97.239000 -75.543000 460.719000
97.767000 -75.542000 460.714000
98.249000 -75.507000 460.497000
98.776000 -75.505000 460.487000
99.265000 -75.475000 460.301000
99.788000 -75.470000 460.276000
100.283000 -75.446000 460.125000
100.802000 -75.438000 460.081000
101.313000 -75.425000 460.001000
101.818000 -75.408000 459.898000
102.339000 -75.403000 459.865000
102.860000 -75.398000 459.834000
103.414000 -75.417000 459.950000
103.954000 -75.425000 460.001000
104.515000 -75.449000 460.146000
105.041000 -75.447000 460.136000
105.606000 -75.474000 460.298000
106.141000 -75.478000 460.324000
106.713000 -75.509000 460.510000
107.259000 -75.521000 460.586000
107.828000 -75.550000 460.759000
108.385000 -75.569000 460.876000
108.971000 -75.608000 461.114000
109.539000 -75.635000 461.277000
110.138000 -75.682000 461.568000
110.710000 -75.711000 461.743000
111.356000 -75.790000 462.225000
111.903000 -75.801000 462.290000
112.588000 -75.905000 462.926000
113.182000 -75.947000 463.181000
113.843000 -76.033000 463.705000
114.471000 -76.096000 464.092000
115.170000 -76.206000 464.763000
115.804000 -76.272000 465.166000
116.566000 -76.422000 466.079000
87.402000 -76.123000 467.529000
87.837000 -76.035000 466.987000
88.271000 -75.946000 466.445000
88.734000 -75.884000 466.063000
89.180000 -75.809000 465.601000
89.623000 -75.731000 465.123000
90.094000 -75.679000 464.801000
90.538000 -75.603000 464.339000
90.988000 -75.534000 463.913000
91.472000 -75.495000 463.670000
91.943000 -75.444000 463.361000
92.404000 -75.386000 463.001000
92.893000 -75.351000 462.790000
93.352000 -75.293000 462.432000
93.853000 -75.269000 462.284000
94.317000 -75.216000 461.957000
94.822000 -75.195000 461.832000
95.297000 -75.152000 461.566000
95.798000 -75.129000 461.427000
96.269000 -75.083000 461.141000
96.797000 -75.082000 461.133000
97.265000 -75.035000 460.847000
97.788000 -75.030000 460.815000
98.271000 -74.994000 460.597000
98.800000 -74.994000 460.599000
99.290000 -74.966000 460.421000
99.814000 -74.961000 460.395000
100.311000 -74.938000 460.250000
100.840000 -74.939000 460.256000
101.344000 -74.920000 460.143000
101.859000 -74.910000 460.082000
102.386000 -74.909000 460.076000
102.909000 -74.905000 460.051000
103.462000 -74.924000 460.165000
104.004000 -74.933000 460.223000
104.550000 -74.946000 460.300000
105.071000 -74.941000 460.269000
105.636000 -74.966000 460.426000
106.181000 -74.978000 460.496000
106.737000 -74.997000 460.616000
107.291000 -75.015000 460.722000
107.870000 -75.050000 460.937000
108.437000 -75.076000 461.098000
108.997000 -75.096000 461.224000
109.577000 -75.131000 461.437000
110.191000 -75.189000 461.792000
110.752000 -75.209000 461.918000
111.398000 -75.287000 462.397000
111.963000 -75.310000 462.540000
112.649000 -75.414000 463.178000
113.218000 -75.439000 463.328000
113.886000 -75.529000 463.883000
114.519000 -75.596000 464.291000
115.211000 -75.700000 464.930000
115.880000 -75.788000 465.475000
116.633000 -75.930000 466.347000
87.449000 -75.627000 467.780000
87.869000 -75.526000 467.158000
88.305000 -75.440000 466.625000
88.773000 -75.383000 466.273000
89.212000 -75.301000 465.767000
89.661000 -75.229000 465.322000
90.137000 -75.180000 465.019000
90.576000 -75.102000 464.534000
91.038000 -75.043000 464.168000
91.512000 -74.994000 463.870000
91.976000 -74.939000 463.525000
92.441000 -74.885000 463.190000
92.925000 -74.845000 462.948000
93.383000 -74.786000 462.584000
93.887000 -74.765000 462.450000
94.352000 -74.713000 462.129000
94.860000 -74.695000 462.017000
95.321000 -74.641000 461.681000
95.823000 -74.619000 461.545000
96.288000 -74.568000 461.232000
96.820000 -74.570000 461.246000
97.296000 -74.529000 460.991000
97.822000 -74.527000 460.977000
98.305000 -74.492000 460.760000
98.830000 -74.489000 460.741000
99.317000 -74.457000 460.544000
99.849000 -74.459000 460.559000
100.339000 -74.430000 460.379000
100.867000 -74.430000 460.377000
101.383000 -74.420000 460.319000
101.906000 -74.416000 460.294000
102.426000 -74.410000 460.255000
102.956000 -74.411000 460.263000
103.494000 -74.418000 460.305000
104.039000 -74.430000 460.378000
104.587000 -74.443000 460.462000
105.116000 -74.444000 460.464000
105.663000 -74.457000 460.545000
106.208000 -74.468000 460.615000
106.772000 -74.493000 460.768000
107.337000 -74.518000 460.920000
107.911000 -74.548000 461.110000
108.462000 -74.564000 461.205000
109.050000 -74.603000 461.449000
109.622000 -74.632000 461.627000
110.247000 -74.696000 462.027000
110.792000 -74.706000 462.085000
111.446000 -74.789000 462.600000
112.022000 -74.819000 462.785000
112.671000 -74.897000 463.267000
113.277000 -74.946000 463.569000
113.944000 -75.034000 464.117000
114.568000 -75.094000 464.486000
115.278000 -75.210000 465.200000
115.977000 -75.317000 465.862000
87.898000 -75.014000 467.309000
88.339000 -74.933000 466.807000
88.798000 -74.868000 466.403000
89.233000 -74.784000 465.877000
89.685000 -74.715000 465.446000
90.159000 -74.665000 465.137000
90.603000 -74.591000 464.673000
91.077000 -74.542000 464.369000
91.538000 -74.483000 464.003000
91.996000 -74.423000 463.628000
92.469000 -74.374000 463.326000
92.955000 -74.338000 463.101000
93.410000 -74.277000 462.717000
93.912000 -74.254000 462.575000
94.374000 -74.199000 462.233000
94.883000 -74.183000 462.132000
95.350000 -74.133000 461.823000
95.860000 -74.117000 461.723000
96.325000 -74.067000 461.410000
96.855000 -74.068000 461.414000
97.334000 -74.029000 461.173000
97.859000 -74.025000 461.148000
98.343000 -73.991000 460.936000
98.872000 -73.990000 460.934000
99.349000 -73.952000 460.694000
99.885000 -73.957000 460.724000
100.381000 -73.932000 460.572000
100.911000 -73.933000 460.576000
101.421000 -73.919000 460.491000
101.949000 -73.919000 460.488000
102.466000 -73.911000 460.438000
102.997000 -73.912000 460.445000
103.535000 -73.919000 460.487000
104.080000 -73.930000 460.559000
104.622000 -73.940000 460.619000
105.164000 -73.949000 460.673000
105.704000 -73.957000 460.723000
106.265000 -73.979000 460.863000
106.814000 -73.993000 460.949000
107.393000 -74.027000 461.159000
107.956000 -74.050000 461.303000
108.499000 -74.059000 461.362000
109.098000 -74.106000 461.655000
109.661000 -74.128000 461.790000
110.296000 -74.199000 462.231000
110.834000 -74.203000 462.259000
111.514000 -74.303000 462.879000
112.072000 -74.320000 462.989000
112.718000 -74.396000 463.459000
113.340000 -74.455000 463.827000
113.994000 -74.534000 464.321000
114.637000 -74.606000 464.767000
115.351000 -74.723000 465.495000
116.040000 -74.823000 466.117000
87.937000 -74.511000 467.521000
88.395000 -74.444000 467.103000
88.848000 -74.375000 466.665000
89.279000 -74.287000 466.117000
89.737000 -74.223000 465.715000
90.199000 -74.163000 465.338000
90.638000 -74.085000 464.849000
91.120000 -74.044000 464.590000
91.576000 -73.981000 464.196000
92.045000 -73.930000 463.875000
92.518000 -73.882000 463.575000
92.997000 -73.840000 463.308000
93.457000 -73.783000 462.954000
93.956000 -73.757000 462.789000
94.415000 -73.701000 462.436000
94.929000 -73.687000 462.353000
95.392000 -73.635000 462.023000
95.907000 -73.623000 461.949000
96.376000 -73.576000 461.654000
96.901000 -73.573000 461.632000
97.375000 -73.530000 461.366000
97.893000 -73.521000 461.308000
98.374000 -73.485000 461.080000
98.904000 -73.486000 461.086000
99.393000 -73.456000 460.899000
99.931000 -73.461000 460.935000
100.422000 -73.434000 460.761000
100.962000 -73.442000 460.813000
101.462000 -73.420000 460.678000
101.985000 -73.416000 460.650000
102.504000 -73.409000 460.608000
103.044000 -73.417000 460.657000
103.577000 -73.420000 460.673000
104.133000 -73.439000 460.794000
104.651000 -73.431000 460.745000
105.201000 -73.445000 460.835000
105.752000 -73.461000 460.930000
106.318000 -73.486000 461.090000
106.859000 -73.494000 461.140000
107.431000 -73.524000 461.326000
108.004000 -73.553000 461.510000
108.556000 -73.568000 461.602000
109.165000 -73.621000 461.936000
109.705000 -73.627000 461.977000
110.360000 -73.710000 462.497000
110.901000 -73.718000 462.542000
111.553000 -73.797000 463.042000
112.120000 -73.821000 463.189000
112.781000 -73.905000 463.720000
113.392000 -73.956000 464.039000
114.079000 -74.056000 464.669000
114.715000 -74.123000 465.085000
115.407000 -74.224000 465.722000
116.118000 -74.337000 466.428000
87.978000 -74.008000 467.737000
88.429000 -73.936000 467.281000
88.873000 -73.860000 466.798000
89.309000 -73.777000 466.273000
89.776000 -73.721000 465.920000
90.234000 -73.658000 465.522000
90.678000 -73.584000 465.057000
91.177000 -73.556000 464.877000
91.628000 -73.490000 464.460000
92.101000 -73.441000 464.153000
92.558000 -73.382000 463.776000
93.032000 -73.336000 463.485000
93.501000 -73.286000 463.172000
93.999000 -73.259000 463.001000
94.462000 -73.206000 462.667000
94.973000 -73.191000 462.570000
95.434000 -73.136000 462.226000
95.953000 -73.128000 462.173000
96.416000 -73.076000 461.847000
96.938000 -73.070000 461.808000
97.410000 -73.026000 461.530000
97.936000 -73.023000 461.512000
98.418000 -72.988000 461.286000
98.949000 -72.989000 461.292000
99.434000 -72.956000 461.089000
99.974000 -72.964000 461.136000
100.468000 -72.938000 460.974000
100.999000 -72.939000 460.978000
101.498000 -72.918000 460.845000
102.052000 -72.936000 460.957000
102.563000 -72.922000 460.872000
103.109000 -72.934000 460.950000
103.624000 -72.924000 460.884000
104.186000 -72.947000 461.030000
104.704000 -72.939000 460.978000
105.264000 -72.960000 461.114000
105.790000 -72.958000 461.100000
106.360000 -72.986000 461.275000
106.920000 -73.006000 461.403000
107.477000 -73.025000 461.523000
108.062000 -73.062000 461.758000
108.602000 -73.069000 461.800000
109.234000 -73.137000 462.227000
109.753000 -73.129000 462.179000
110.414000 -73.215000 462.724000
110.952000 -73.220000 462.753000
111.610000 -73.303000 463.278000
112.194000 -73.337000 463.492000
112.833000 -73.406000 463.932000
113.456000 -73.465000 464.304000
114.165000 -73.578000 465.017000
114.784000 -73.633000 465.362000
115.490000 -73.742000 466.055000
116.189000 -73.846000 466.712000
88.037000 -73.520000 468.049000
88.493000 -73.453000 467.622000
88.919000 -73.362000 467.039000
89.362000 -73.285000 466.550000
89.838000 -73.236000 466.240000
90.281000 -73.161000 465.762000
90.730000 -73.092000 465.325000
91.223000 -73.059000 465.112000
91.668000 -72.988000 464.659000
92.138000 -72.938000 464.343000
92.601000 -72.883000 463.989000
93.079000 -72.840000 463.716000
93.549000 -72.791000 463.407000
94.041000 -72.760000 463.211000
94.505000 -72.708000 462.877000
95.015000 -72.691000 462.772000
95.471000 -72.634000 462.408000
95.991000 -72.626000 462.353000
96.454000 -72.574000 462.027000
96.980000 -72.571000 462.007000
97.455000 -72.530000 461.743000
97.977000 -72.524000 461.708000
98.467000 -72.494000 461.515000
98.997000 -72.494000 461.517000
99.482000 -72.462000 461.309000
100.007000 -72.458000 461.289000
100.508000 -72.438000 461.158000
101.046000 -72.444000 461.194000
101.545000 -72.422000 461.058000
102.102000 -72.441000 461.179000
102.610000 -72.426000 461.085000
103.153000 -72.436000 461.145000
103.664000 -72.423000 461.063000
104.229000 -72.448000 461.220000
104.752000 -72.443000 461.189000
105.312000 -72.464000 461.322000
105.851000 -72.470000 461.362000
106.414000 -72.493000 461.507000
106.972000 -72.512000 461.631000
107.532000 -72.532000 461.759000
108.138000 -72.583000 462.083000
108.662000 -72.578000 462.053000
109.292000 -72.645000 462.475000
109.805000 -72.633000 462.398000
110.451000 -72.708000 462.880000
111.018000 -72.732000 463.029000
111.666000 -72.807000 463.510000
112.263000 -72.850000 463.779000
112.911000 -72.924000 464.253000
113.534000 -72.982000 464.621000
114.219000 -73.079000 465.239000
114.869000 -73.153000 465.710000
115.580000 -73.264000 466.419000
88.080000 -73.018000 468.277000
88.530000 -72.946000 467.816000
88.970000 -72.867000 467.306000
89.426000 -72.802000 466.887000
89.879000 -72.734000 466.454000
90.319000 -72.657000 465.960000
90.778000 -72.597000 465.571000
91.258000 -72.553000 465.290000
91.704000 -72.483000 464.845000
92.189000 -72.445000 464.596000
92.653000 -72.391000 464.252000
93.130000 -72.347000 463.972000
93.593000 -72.293000 463.624000
94.085000 -72.262000 463.428000
94.552000 -72.212000 463.105000
95.056000 -72.191000 462.972000
95.515000 -72.136000 462.620000
96.038000 -72.130000 462.582000
96.503000 -72.081000 462.264000
97.026000 -72.075000 462.226000
97.504000 -72.036000 461.975000
98.026000 -72.030000 461.936000
98.511000 -71.997000 461.724000
99.040000 -71.996000 461.718000
99.535000 -71.970000 461.555000
100.062000 -71.968000 461.539000
100.561000 -71.946000 461.399000
101.104000 -71.956000 461.461000
101.610000 -71.939000 461.352000
102.145000 -71.942000 461.376000
102.658000 -71.930000 461.299000
103.209000 -71.945000 461.395000
103.736000 -71.943000 461.381000
104.285000 -71.956000 461.465000
104.818000 -71.958000 461.479000
105.366000 -71.971000 461.560000
105.929000 -71.994000 461.706000
106.469000 -72.000000 461.748000
107.054000 -72.037000 461.982000
107.584000 -72.037000 461.981000
108.214000 -72.103000 462.405000
108.726000 -72.090000 462.325000
109.365000 -72.162000 462.785000
109.885000 -72.155000 462.737000
110.547000 -72.240000 463.284000
111.109000 -72.259000 463.406000
111.739000 -72.323000 463.815000
112.361000 -72.380000 464.184000
113.022000 -72.462000 464.711000
113.633000 -72.512000 465.028000
114.308000 -72.601000 465.600000
114.959000 -72.675000 466.075000
88.160000 -72.547000 468.703000
88.598000 -72.465000 468.173000
89.025000 -72.375000 467.592000
89.489000 -72.316000 467.214000
89.926000 -72.237000 466.699000
90.361000 -72.156000 466.176000
90.833000 -72.105000 465.852000
91.305000 -72.055000 465.529000
91.750000 -71.985000 465.075000
92.251000 -71.959000 464.908000
92.703000 -71.896000 464.502000
93.188000 -71.859000 464.261000
93.649000 -71.803000 463.901000
94.134000 -71.767000 463.669000
94.605000 -71.720000 463.364000
95.111000 -71.701000 463.238000
95.576000 -71.651000 462.914000
96.096000 -71.642000 462.861000
96.565000 -71.596000 462.562000
97.076000 -71.581000 462.464000
97.556000 -71.543000 462.221000
98.074000 -71.534000 462.162000
98.564000 -71.505000 461.974000
99.094000 -71.505000 461.972000
99.591000 -71.480000 461.814000
100.117000 -71.477000 461.795000
100.626000 -71.462000 461.697000
101.156000 -71.462000 461.696000
101.670000 -71.451000 461.624000
102.203000 -71.453000 461.636000
102.727000 -71.449000 461.611000
103.262000 -71.452000 461.630000
103.791000 -71.451000 461.625000
104.330000 -71.457000 461.666000
104.881000 -71.472000 461.759000
105.422000 -71.479000 461.806000
105.995000 -71.508000 461.992000
106.537000 -71.515000 462.041000
107.126000 -71.554000 462.293000
107.646000 -71.548000 462.249000
108.263000 -71.605000 462.617000
108.796000 -71.605000 462.622000
109.419000 -71.665000 463.010000
109.972000 -71.680000 463.102000
110.618000 -71.754000 463.581000
111.177000 -71.771000 463.693000
111.819000 -71.841000 464.147000
112.429000 -71.891000 464.466000
113.094000 -71.974000 465.006000
113.709000 -72.026000 465.338000
114.405000 -72.127000 465.995000
115.064000 -72.206000 466.500000
88.651000 -71.970000 468.454000
89.089000 -71.890000 467.930000
89.544000 -71.823000 467.499000
89.982000 -71.745000 466.985000
90.437000 -71.680000 466.568000
90.899000 -71.623000 466.192000
91.355000 -71.560000 465.784000
91.805000 -71.494000 465.356000
92.299000 -71.463000 465.152000
92.756000 -71.404000 464.768000
93.241000 -71.366000 464.524000
93.708000 -71.316000 464.193000
94.197000 -71.283000 463.980000
94.664000 -71.233000 463.655000
95.172000 -71.215000 463.536000
95.631000 -71.161000 463.184000
96.143000 -71.145000 463.085000
96.615000 -71.102000 462.802000
97.132000 -71.091000 462.733000
97.618000 -71.058000 462.519000
98.133000 -71.046000 462.441000
98.628000 -71.021000 462.274000
99.154000 -71.017000 462.252000
99.657000 -70.997000 462.122000
100.174000 -70.988000 462.060000
100.687000 -70.975000 461.979000
101.214000 -70.973000 461.961000
101.739000 -70.969000 461.936000
102.266000 -70.966000 461.921000
102.801000 -70.970000 461.944000
103.314000 -70.957000 461.862000
103.860000 -70.969000 461.935000
104.396000 -70.972000 461.959000
104.952000 -70.990000 462.071000
105.487000 -70.992000 462.090000
106.066000 -71.025000 462.302000
106.588000 -71.019000 462.262000
107.188000 -71.065000 462.563000
107.725000 -71.069000 462.588000
108.325000 -71.114000 462.881000
108.868000 -71.121000 462.929000
109.488000 -71.179000 463.305000
110.063000 -71.207000 463.486000
110.669000 -71.254000 463.793000
111.263000 -71.293000 464.049000
111.932000 -71.380000 464.615000
112.507000 -71.406000 464.785000
113.187000 -71.499000 465.387000
113.823000 -71.563000 465.802000
114.503000 -71.654000 466.394000
115.157000 -71.728000 466.875000
88.712000 -71.481000 468.777000
89.154000 -71.404000 468.270000
89.601000 -71.332000 467.797000
90.033000 -71.249000 467.253000
90.502000 -71.196000 466.902000
90.964000 -71.138000 466.524000
91.412000 -71.070000 466.077000
91.871000 -71.011000 465.692000
92.361000 -70.977000 465.466000
92.815000 -70.915000 465.061000
93.302000 -70.879000 464.827000
93.755000 -70.819000 464.430000
94.258000 -70.796000 464.279000
94.724000 -70.745000 463.950000
95.223000 -70.720000 463.785000
95.693000 -70.674000 463.480000
96.201000 -70.657000 463.367000
96.673000 -70.613000 463.079000
97.194000 -70.605000 463.027000
97.678000 -70.570000 462.799000
98.196000 -70.561000 462.738000
98.693000 -70.536000 462.575000
99.205000 -70.523000 462.489000
99.717000 -70.509000 462.401000
100.237000 -70.501000 462.349000
100.749000 -70.488000 462.261000
101.275000 -70.485000 462.241000
101.809000 -70.487000 462.255000
102.327000 -70.478000 462.197000
102.851000 -70.474000 462.167000
103.372000 -70.467000 462.124000
103.930000 -70.485000 462.243000
104.462000 -70.486000 462.249000
105.037000 -70.516000 462.446000
105.545000 -70.500000 462.343000
106.129000 -70.536000 462.574000
106.666000 -70.540000 462.600000
107.260000 -70.581000 462.874000
107.788000 -70.579000 462.858000
108.397000 -70.629000 463.186000
108.959000 -70.649000 463.315000
109.562000 -70.695000 463.616000
110.143000 -70.726000 463.823000
110.754000 -70.776000 464.149000
111.354000 -70.818000 464.428000
111.995000 -70.887000 464.878000
112.590000 -70.925000 465.128000
113.295000 -71.032000 465.831000
113.942000 -71.103000 466.291000
114.607000 -71.183000 466.819000
88.774000 -70.993000 469.106000
89.219000 -70.918000 468.612000
89.660000 -70.842000 468.105000
90.100000 -70.765000 467.599000
90.578000 -70.719000 467.296000
91.026000 -70.650000 466.841000
91.481000 -70.588000 466.431000
91.947000 -70.535000 466.077000
92.423000 -70.489000 465.777000
92.875000 -70.426000 465.362000
93.364000 -70.392000 465.134000
93.818000 -70.332000 464.739000
94.324000 -70.311000 464.601000
94.786000 -70.259000 464.253000
95.290000 -70.237000 464.110000
95.759000 -70.190000 463.802000
96.268000 -70.173000 463.689000
96.739000 -70.129000 463.396000
97.256000 -70.118000 463.322000
97.739000 -70.083000 463.090000
98.255000 -70.072000 463.017000
98.750000 -70.045000 462.844000
99.274000 -70.040000 462.808000
99.780000 -70.022000 462.691000
100.302000 -70.016000 462.648000
100.824000 -70.009000 462.606000
101.346000 -70.003000 462.565000
101.865000 -69.994000 462.508000
102.379000 -69.983000 462.430000
102.931000 -69.997000 462.526000
103.437000 -69.980000 462.412000
104.012000 -70.010000 462.607000
104.528000 -70.000000 462.544000
105.101000 -70.028000 462.728000
105.630000 -70.026000 462.716000
106.219000 -70.064000 462.966000
106.767000 -70.075000 463.040000
107.329000 -70.095000 463.171000
107.884000 -70.110000 463.268000
108.481000 -70.152000 463.547000
109.048000 -70.174000 463.696000
109.658000 -70.224000 464.025000
110.239000 -70.255000 464.227000
110.879000 -70.322000 464.674000
111.429000 -70.332000 464.741000
112.122000 -70.433000 465.405000
112.726000 -70.477000 465.693000
113.412000 -70.570000 466.313000
114.047000 -70.632000 466.721000
114.770000 -70.747000 467.484000
88.423000 -70.604000 470.102000
88.865000 -70.526000 469.585000
89.310000 -70.452000 469.092000
89.741000 -70.367000 468.527000
90.182000 -70.292000 468.024000
90.656000 -70.243000 467.701000
91.093000 -70.166000 467.184000
91.561000 -70.113000 466.834000
92.020000 -70.055000 466.446000
92.495000 -70.009000 466.138000
92.954000 -69.952000 465.759000
93.442000 -69.916000 465.525000
93.894000 -69.855000 465.115000
94.391000 -69.828000 464.934000
94.850000 -69.773000 464.566000
95.366000 -69.760000 464.480000
95.832000 -69.711000 464.158000
96.336000 -69.690000 464.015000
96.809000 -69.647000 463.728000
97.323000 -69.634000 463.643000
97.801000 -69.595000 463.386000
98.331000 -69.594000 463.375000
98.812000 -69.557000 463.133000
99.341000 -69.555000 463.119000
99.843000 -69.535000 462.983000
100.375000 -69.535000 462.984000
100.881000 -69.518000 462.868000
101.408000 -69.514000 462.845000
101.936000 -69.512000 462.829000
102.461000 -69.508000 462.803000
102.997000 -69.511000 462.822000
103.527000 -69.510000 462.817000
104.075000 -69.520000 462.888000
104.610000 -69.523000 462.903000
105.169000 -69.541000 463.027000
105.711000 -69.548000 463.072000
106.288000 -69.578000 463.269000
106.818000 -69.576000 463.259000
107.395000 -69.606000 463.456000
107.979000 -69.639000 463.676000
108.574000 -69.679000 463.945000
109.132000 -69.696000 464.054000
109.771000 -69.763000 464.501000
110.333000 -69.781000 464.622000
110.967000 -69.844000 465.042000
111.537000 -69.867000 465.193000
112.215000 -69.957000 465.791000
112.842000 -70.013000 466.170000
113.518000 -70.100000 466.750000
114.182000 -70.179000 467.273000
114.918000 -70.301000 468.086000
88.485000 -70.114000 470.434000
88.926000 -70.035000 469.909000
89.370000 -69.961000 469.408000
89.809000 -69.883000 468.886000
90.263000 -69.817000 468.445000
90.720000 -69.755000 468.027000
91.163000 -69.683000 467.543000
91.639000 -69.637000 467.233000
92.095000 -69.576000 466.827000
92.562000 -69.524000 466.479000
93.021000 -69.466000 466.092000
93.506000 -69.430000 465.845000
93.964000 -69.373000 465.465000
94.446000 -69.334000 465.202000
94.912000 -69.285000 464.872000
95.426000 -69.270000 464.773000
95.897000 -69.225000 464.470000
96.406000 -69.208000 464.356000
96.879000 -69.164000 464.065000
97.393000 -69.151000 463.974000
97.873000 -69.114000 463.724000
98.402000 -69.111000 463.707000
98.879000 -69.072000 463.447000
99.421000 -69.079000 463.493000
99.911000 -69.050000 463.299000
100.450000 -69.055000 463.333000
100.957000 -69.038000 463.218000
101.498000 -69.044000 463.258000
102.015000 -69.034000 463.190000
102.550000 -69.036000 463.204000
103.068000 -69.027000 463.141000
103.610000 -69.034000 463.188000
104.154000 -69.042000 463.241000
104.703000 -69.053000 463.315000
105.250000 -69.063000 463.383000
105.807000 -69.079000 463.490000
106.360000 -69.092000 463.582000
106.917000 -69.108000 463.688000
107.487000 -69.133000 463.853000
108.056000 -69.156000 464.007000
108.677000 -69.212000 464.383000
109.234000 -69.227000 464.485000
109.875000 -69.295000 464.940000
110.425000 -69.305000 465.010000
111.080000 -69.381000 465.515000
111.651000 -69.403000 465.667000
112.331000 -69.493000 466.271000
112.951000 -69.545000 466.621000
113.679000 -69.663000 467.409000
114.311000 -69.721000 467.800000
88.576000 -69.645000 470.916000
89.041000 -69.586000 470.518000
89.457000 -69.489000 469.862000
89.892000 -69.408000 469.315000
90.346000 -69.343000 468.877000
90.801000 -69.279000 468.446000
91.249000 -69.211000 467.984000
91.723000 -69.164000 467.663000
92.158000 -69.087000 467.146000
92.639000 -69.045000 466.864000
93.091000 -68.983000 466.442000
93.576000 -68.946000 466.192000
94.033000 -68.888000 465.802000
94.525000 -68.858000 465.595000
94.992000 -68.808000 465.260000
95.510000 -68.797000 465.185000
95.977000 -68.749000 464.859000
96.487000 -68.732000 464.742000
96.957000 -68.687000 464.438000
97.479000 -68.679000 464.385000
97.961000 -68.643000 464.141000
98.480000 -68.633000 464.078000
98.952000 -68.591000 463.790000
99.499000 -68.601000 463.856000
99.989000 -68.571000 463.659000
100.534000 -68.580000 463.716000
101.034000 -68.558000 463.571000
101.584000 -68.570000 463.650000
102.088000 -68.551000 463.519000
102.619000 -68.550000 463.516000
103.143000 -68.545000 463.479000
103.694000 -68.557000 463.564000
104.233000 -68.561000 463.591000
104.799000 -68.584000 463.741000
105.325000 -68.579000 463.713000
105.904000 -68.610000 463.917000
106.444000 -68.614000 463.947000
106.998000 -68.628000 464.041000
107.579000 -68.659000 464.250000
108.149000 -68.682000 464.407000
108.784000 -68.746000 464.842000
109.330000 -68.754000 464.895000
109.975000 -68.824000 465.364000
110.539000 -68.842000 465.490000
111.186000 -68.912000 465.960000
111.793000 -68.956000 466.261000
112.444000 -69.027000 466.740000
113.081000 -69.089000 467.156000
113.820000 -69.212000 467.991000
114.485000 -69.289000 468.514000
60.941000 -78.822000 537.138000
61.551000 -78.813000 537.080000
62.149000 -78.789000 536.916000
62.747000 -78.765000 536.755000
63.347000 -78.745000 536.618000
63.932000 -78.707000 536.359000
64.552000 -78.712000 536.388000
88.684000 -69.188000 471.489000
89.110000 -69.099000 470.882000
89.526000 -69.003000 470.226000
89.980000 -68.937000 469.775000
90.429000 -68.868000 469.306000
90.884000 -68.805000 468.876000
91.329000 -68.734000 468.394000
91.793000 -68.679000 468.022000
92.233000 -68.607000 467.528000
92.709000 -68.562000 467.220000
93.166000 -68.503000 466.819000
93.655000 -68.469000 466.587000
94.116000 -68.414000 466.216000
94.620000 -68.392000 466.061000
95.080000 -68.337000 465.692000
95.596000 -68.324000 465.600000
96.062000 -68.275000 465.269000
96.579000 -68.263000 465.184000
97.051000 -68.219000 464.888000
97.551000 -68.196000 464.729000
98.039000 -68.164000 464.511000
98.556000 -68.153000 464.435000
99.053000 -68.128000 464.264000
99.582000 -68.125000 464.247000
100.079000 -68.101000 464.080000
100.615000 -68.103000 464.093000
101.126000 -68.088000 463.992000
101.661000 -68.089000 464.000000
102.171000 -68.074000 463.896000
102.714000 -68.081000 463.945000
103.226000 -68.067000 463.850000
103.786000 -68.085000 463.974000
104.317000 -68.084000 463.967000
104.878000 -68.103000 464.092000
105.435000 -68.118000 464.199000
105.986000 -68.130000 464.278000
106.555000 -68.152000 464.431000
107.097000 -68.158000 464.471000
107.722000 -68.216000 464.866000
108.252000 -68.214000 464.851000
108.905000 -68.288000 465.358000
109.442000 -68.290000 465.372000
110.087000 -68.359000 465.837000
110.677000 -68.393000 466.072000
111.320000 -68.459000 466.520000
111.898000 -68.485000 466.700000
112.598000 -68.585000 467.380000
113.255000 -68.658000 467.878000
113.966000 -68.763000 468.593000
114.626000 -68.836000 469.092000
59.828000 -78.362000 538.219000
60.397000 -78.299000 537.784000
61.016000 -78.300000 537.793000
61.619000 -78.282000 537.668000
62.241000 -78.288000 537.712000
62.839000 -78.263000 537.540000
63.447000 -78.253000 537.468000
64.029000 -78.210000 537.170000
89.211000 -68.636000 471.413000
89.649000 -68.557000 470.873000
90.101000 -68.489000 470.409000
90.528000 -68.404000 469.823000
90.974000 -68.334000 469.338000
91.422000 -68.266000 468.872000
91.876000 -68.203000 468.443000
92.322000 -68.135000 467.975000
92.804000 -68.095000 467.697000
93.258000 -68.034000 467.280000
93.745000 -67.998000 467.032000
94.201000 -67.940000 466.637000
94.702000 -67.915000 466.466000
95.173000 -67.869000 466.147000
95.685000 -67.853000 466.036000
96.150000 -67.803000 465.696000
96.662000 -67.787000 465.586000
97.133000 -67.743000 465.282000
97.647000 -67.729000 465.185000
98.133000 -67.696000 464.956000
98.638000 -67.676000 464.821000
99.138000 -67.653000 464.663000
99.657000 -67.643000 464.593000
100.171000 -67.629000 464.502000
100.689000 -67.619000 464.433000
101.211000 -67.612000 464.381000
101.744000 -67.612000 464.382000
102.271000 -67.608000 464.352000
102.798000 -67.603000 464.324000
103.334000 -67.605000 464.337000
103.870000 -67.607000 464.349000
104.437000 -67.629000 464.499000
104.969000 -67.628000 464.492000
105.546000 -67.656000 464.687000
106.072000 -67.652000 464.654000
106.659000 -67.685000 464.884000
107.200000 -67.690000 464.917000
107.833000 -67.752000 465.345000
108.380000 -67.760000 465.399000
108.996000 -67.811000 465.750000
109.581000 -67.842000 465.960000
110.201000 -67.894000 466.319000
110.795000 -67.930000 466.567000
111.443000 -67.999000 467.037000
112.054000 -68.044000 467.349000
112.745000 -68.137000 467.991000
113.414000 -68.216000 468.533000
114.127000 -68.321000 469.255000
59.916000 -77.859000 539.010000
60.464000 -77.767000 538.380000
61.101000 -77.792000 538.549000
61.678000 -77.739000 538.185000
62.326000 -77.777000 538.446000
62.898000 -77.720000 538.048000
63.530000 -77.736000 538.164000
90.187000 -68.014000 470.855000
90.609000 -67.925000 470.243000
91.061000 -67.860000 469.789000
91.513000 -67.795000 469.340000
91.961000 -67.728000 468.874000
92.412000 -67.664000 468.433000
92.902000 -67.629000 468.190000
93.349000 -67.564000 467.739000
93.828000 -67.521000 467.447000
94.287000 -67.466000 467.065000
94.789000 -67.442000 466.896000
95.259000 -67.395000 466.571000
95.768000 -67.376000 466.438000
96.234000 -67.327000 466.104000
96.758000 -67.319000 466.047000
97.229000 -67.275000 465.740000
97.745000 -67.262000 465.650000
98.233000 -67.230000 465.430000
98.737000 -67.210000 465.288000
99.235000 -67.185000 465.116000
99.744000 -67.168000 465.002000
100.270000 -67.163000 464.965000
100.783000 -67.149000 464.867000
101.320000 -67.151000 464.884000
101.843000 -67.144000 464.832000
102.393000 -67.154000 464.906000
102.884000 -67.126000 464.712000
103.450000 -67.148000 464.858000
103.981000 -67.146000 464.845000
104.563000 -67.177000 465.060000
105.061000 -67.154000 464.900000
105.651000 -67.190000 465.150000
106.167000 -67.178000 465.069000
106.775000 -67.225000 465.392000
107.323000 -67.233000 465.450000
107.950000 -67.290000 465.848000
108.502000 -67.302000 465.924000
109.118000 -67.351000 466.267000
109.704000 -67.383000 466.486000
110.338000 -67.442000 466.900000
110.922000 -67.472000 467.103000
111.619000 -67.569000 467.776000
112.221000 -67.608000 468.047000
112.917000 -67.703000 468.702000
113.589000 -67.783000 469.258000
114.353000 -67.916000 470.181000
59.364000 -77.326000 539.616000
59.991000 -77.336000 539.684000
60.557000 -77.267000 539.204000
61.202000 -77.300000 539.432000
61.754000 -77.217000 538.850000
62.398000 -77.247000 539.065000
62.967000 -77.187000 538.640000
63.612000 -77.218000 538.860000
90.742000 -67.484000 470.930000
91.185000 -67.412000 470.429000
91.613000 -67.329000 469.851000
92.076000 -67.274000 469.463000
92.524000 -67.208000 469.003000
93.000000 -67.162000 468.684000
93.453000 -67.101000 468.259000
93.942000 -67.066000 468.018000
94.392000 -67.004000 467.584000
94.902000 -66.985000 467.450000
95.363000 -66.932000 467.081000
95.861000 -66.905000 466.893000
96.327000 -66.856000 466.551000
96.854000 -66.851000 466.511000
97.330000 -66.810000 466.227000
97.852000 -66.800000 466.160000
98.314000 -66.751000 465.816000
98.835000 -66.741000 465.748000
99.328000 -66.713000 465.552000
99.850000 -66.705000 465.495000
100.364000 -66.691000 465.399000
100.889000 -66.685000 465.355000
101.420000 -66.683000 465.339000
101.947000 -66.678000 465.309000
102.476000 -66.675000 465.285000
102.991000 -66.662000 465.196000
103.558000 -66.683000 465.345000
104.084000 -66.678000 465.306000
104.661000 -66.705000 465.496000
105.187000 -66.700000 465.458000
105.759000 -66.724000 465.625000
106.292000 -66.722000 465.615000
106.883000 -66.757000 465.861000
107.453000 -66.779000 466.012000
108.067000 -66.828000 466.353000
108.646000 -66.855000 466.542000
109.257000 -66.901000 466.864000
109.829000 -66.923000 467.016000
110.501000 -67.005000 467.590000
111.076000 -67.028000 467.750000
111.770000 -67.123000 468.410000
112.400000 -67.178000 468.794000
113.105000 -67.277000 469.486000
113.823000 -67.382000 470.223000
58.811000 -76.794000 540.228000
59.423000 -76.784000 540.160000
60.034000 -76.771000 540.070000
60.636000 -76.748000 539.908000
61.260000 -76.754000 539.947000
61.835000 -76.698000 539.556000
62.450000 -76.693000 539.517000
63.023000 -76.636000 539.116000
63.656000 -76.652000 539.232000
91.299000 -66.955000 471.017000
91.736000 -66.879000 470.483000
92.190000 -66.817000 470.045000
92.629000 -66.744000 469.531000
93.103000 -66.698000 469.203000
93.573000 -66.649000 468.859000
94.062000 -66.614000 468.615000
94.525000 -66.561000 468.240000
95.013000 -66.526000 467.999000
95.474000 -66.473000 467.625000
95.971000 -66.445000 467.429000
96.437000 -66.396000 467.085000
96.941000 -66.374000 466.929000
97.418000 -66.334000 466.647000
97.945000 -66.328000 466.605000
98.419000 -66.287000 466.313000
98.944000 -66.280000 466.262000
99.434000 -66.249000 466.049000
99.968000 -66.249000 466.047000
100.470000 -66.227000 465.890000
101.005000 -66.227000 465.893000
101.511000 -66.208000 465.759000
102.064000 -66.220000 465.841000
102.588000 -66.213000 465.792000
103.124000 -66.213000 465.797000
103.664000 -66.217000 465.819000
104.212000 -66.225000 465.880000
104.764000 -66.236000 465.956000
105.325000 -66.252000 466.068000
105.883000 -66.267000 466.171000
106.450000 -66.286000 466.309000
107.012000 -66.302000 466.424000
107.595000 -66.332000 466.629000
108.217000 -66.385000 467.002000
108.788000 -66.406000 467.152000
109.438000 -66.475000 467.636000
109.981000 -66.479000 467.664000
110.677000 -66.574000 468.337000
111.273000 -66.609000 468.579000
111.970000 -66.704000 469.248000
112.591000 -66.753000 469.590000
58.277000 -76.287000 541.032000
58.881000 -76.264000 540.870000
59.491000 -76.250000 540.772000
60.090000 -76.223000 540.577000
60.717000 -76.231000 540.634000
61.322000 -76.211000 540.493000
61.932000 -76.198000 540.399000
81.538000 -69.144000 490.376000
82.014000 -69.071000 489.856000
82.500000 -69.007000 489.403000
82.993000 -68.950000 488.996000
83.456000 -68.869000 488.423000
83.968000 -68.829000 488.138000
84.435000 -68.752000 487.595000
95.134000 -66.073000 468.594000
95.581000 -66.010000 468.148000
96.080000 -65.984000 467.961000
96.549000 -65.937000 467.629000
97.057000 -65.917000 467.488000
97.540000 -65.881000 467.233000
98.052000 -65.864000 467.114000
98.538000 -65.830000 466.874000
99.055000 -65.818000 466.786000
99.545000 -65.787000 466.569000
100.082000 -65.788000 466.574000
100.569000 -65.756000 466.349000
101.130000 -65.773000 466.466000
101.635000 -65.753000 466.327000
102.179000 -65.759000 466.365000
102.695000 -65.746000 466.275000
103.246000 -65.756000 466.350000
103.772000 -65.750000 466.303000
104.349000 -65.776000 466.490000
104.877000 -65.772000 466.459000
105.440000 -65.789000 466.579000
106.010000 -65.810000 466.729000
106.566000 -65.822000 466.816000
107.163000 -65.860000 467.084000
107.725000 -65.875000 467.192000
108.359000 -65.935000 467.616000
108.916000 -65.947000 467.699000
109.583000 -66.025000 468.258000
110.163000 -66.051000 468.438000
110.832000 -66.129000 468.992000
111.451000 -66.177000 469.330000
112.174000 -66.285000 470.100000
112.834000 -66.356000 470.602000
57.777000 -75.825000 542.169000
58.327000 -75.731000 541.502000
58.960000 -75.745000 541.597000
59.544000 -75.696000 541.252000
60.156000 -75.685000 541.169000
60.762000 -75.666000 541.037000
61.373000 -75.653000 540.941000
81.056000 -68.650000 490.872000
81.523000 -68.569000 490.289000
82.000000 -68.497000 489.773000
82.493000 -68.439000 489.359000
82.984000 -68.381000 488.942000
83.452000 -68.304000 488.397000
83.972000 -68.271000 488.158000
84.433000 -68.191000 487.588000
95.232000 -65.602000 469.078000
95.687000 -65.545000 468.668000
96.196000 -65.525000 468.526000
96.673000 -65.484000 468.229000
97.173000 -65.458000 468.046000
97.658000 -65.423000 467.798000
98.160000 -65.400000 467.627000
98.663000 -65.378000 467.470000
99.165000 -65.355000 467.306000
99.671000 -65.334000 467.161000
100.193000 -65.325000 467.094000
100.719000 -65.318000 467.045000
101.251000 -65.315000 467.024000
101.767000 -65.302000 466.931000
102.304000 -65.303000 466.937000
102.830000 -65.297000 466.892000
103.367000 -65.297000 466.893000
103.925000 -65.311000 466.993000
104.466000 -65.314000 467.015000
105.024000 -65.328000 467.112000
105.558000 -65.326000 467.100000
106.165000 -65.369000 467.410000
106.700000 -65.369000 467.406000
107.331000 -65.426000 467.813000
107.872000 -65.428000 467.829000
108.500000 -65.483000 468.223000
109.092000 -65.516000 468.457000
109.741000 -65.582000 468.930000
110.335000 -65.615000 469.167000
111.026000 -65.705000 469.812000
111.653000 -65.757000 470.182000
112.417000 -65.888000 471.118000
57.159000 -75.208000 542.211000
57.833000 -75.275000 542.695000
58.390000 -75.190000 542.079000
59.054000 -75.242000 542.460000
59.618000 -75.169000 541.932000
60.277000 -75.215000 542.262000
60.830000 -75.128000 541.639000
81.030000 -68.064000 490.710000
81.499000 -67.986000 490.145000
81.992000 -67.928000 489.725000
82.483000 -67.869000 489.302000
82.975000 -67.812000 488.892000
83.439000 -67.733000 488.320000
83.962000 -67.703000 488.102000
84.437000 -67.635000 487.611000
84.948000 -67.595000 487.327000
85.452000 -67.551000 487.011000
95.365000 -65.154000 469.729000
95.827000 -65.102000 469.351000
96.346000 -65.089000 469.257000
96.798000 -65.030000 468.834000
97.324000 -65.022000 468.774000
97.796000 -64.978000 468.455000
98.301000 -64.956000 468.302000
98.782000 -64.919000 468.030000
99.295000 -64.903000 467.919000
99.808000 -64.887000 467.803000
100.325000 -64.874000 467.709000
100.860000 -64.873000 467.701000
101.377000 -64.860000 467.609000
101.894000 -64.847000 467.516000
102.414000 -64.836000 467.437000
102.967000 -64.847000 467.514000
103.504000 -64.847000 467.515000
104.081000 -64.872000 467.696000
104.592000 -64.856000 467.576000
105.174000 -64.884000 467.779000
105.694000 -64.873000 467.703000
106.314000 -64.924000 468.067000
106.873000 -64.937000 468.160000
107.477000 -64.977000 468.452000
108.055000 -65.001000 468.625000
108.683000 -65.055000 469.013000
109.299000 -65.101000 469.344000
109.950000 -65.167000 469.823000
110.543000 -65.199000 470.051000
111.252000 -65.298000 470.769000
111.951000 -65.391000 471.433000
57.244000 -74.696000 543.019000
57.880000 -74.713000 543.139000
58.457000 -74.653000 542.700000
59.117000 -74.699000 543.038000
59.696000 -74.644000 542.636000
60.341000 -74.671000 542.834000
76.832000 -68.277000 496.351000
77.269000 -68.160000 495.502000
77.684000 -68.025000 494.517000
78.119000 -67.909000 493.679000
78.575000 -67.813000 492.982000
79.043000 -67.730000 492.377000
79.526000 -67.660000 491.863000
80.032000 -67.610000 491.505000
80.503000 -67.532000 490.936000
81.023000 -67.495000 490.667000
81.498000 -67.422000 490.137000
81.976000 -67.352000 489.629000
82.479000 -67.304000 489.279000
82.973000 -67.249000 488.878000
83.438000 -67.172000 488.318000
83.970000 -67.149000 488.151000
84.442000 -67.078000 487.638000
84.949000 -67.037000 487.334000
85.458000 -66.997000 487.043000
85.955000 -66.949000 486.695000
86.465000 -66.911000 486.420000
95.029000 -64.754000 470.741000
95.523000 -64.722000 470.508000
95.997000 -64.678000 470.185000
96.489000 -64.645000 469.949000
96.948000 -64.592000 469.560000
97.453000 -64.569000 469.397000
97.934000 -64.531000 469.118000
98.456000 -64.520000 469.039000
98.914000 -64.468000 468.659000
99.443000 -64.461000 468.614000
99.941000 -64.436000 468.426000
100.472000 -64.431000 468.393000
100.985000 -64.415000 468.279000
101.511000 -64.408000 468.224000
102.043000 -64.404000 468.198000
102.573000 -64.400000 468.166000
103.125000 -64.408000 468.228000
103.675000 -64.416000 468.285000
104.216000 -64.418000 468.298000
104.760000 -64.422000 468.327000
105.324000 -64.438000 468.443000
105.899000 -64.461000 468.610000
106.498000 -64.497000 468.876000
107.070000 -64.518000 469.025000
107.676000 -64.558000 469.317000
108.261000 -64.586000 469.519000
108.928000 -64.662000 470.070000
109.495000 -64.678000 470.186000
110.200000 -64.775000 470.893000
57.357000 -74.219000 544.093000
57.950000 -74.179000 543.795000
58.564000 -74.165000 543.693000
59.186000 -74.162000 543.673000
59.800000 -74.150000 543.585000
60.404000 -74.126000 543.405000
77.139000 -67.477000 494.668000
77.573000 -67.361000 493.815000
78.073000 -67.303000 493.390000
78.535000 -67.214000 492.737000
79.036000 -67.158000 492.330000
79.508000 -67.080000 491.754000
80.013000 -67.029000 491.384000
80.482000 -66.951000 490.807000
81.012000 -66.923000 490.602000
81.485000 -66.849000 490.059000
81.972000 -66.787000 489.606000
82.465000 -66.731000 489.197000
82.977000 -66.691000 488.905000
83.452000 -66.622000 488.395000
83.978000 -66.594000 488.193000
84.450000 -66.525000 487.686000
