72.224000 -32.775000 408.946000
72.710000 -32.782000 409.041000
73.167000 -32.777000 408.969000
73.660000 -32.787000 409.096000
74.106000 -32.776000 408.966000
74.622000 -32.796000 409.218000
75.070000 -32.787000 409.100000
75.580000 -32.804000 409.318000
76.046000 -32.803000 409.295000
76.556000 -32.820000 409.511000
77.034000 -32.823000 409.551000
77.549000 -32.842000 409.791000
78.042000 -32.852000 409.909000
78.568000 -32.875000 410.197000
79.058000 -32.883000 410.293000
79.593000 -32.909000 410.624000
80.099000 -32.924000 410.803000
80.623000 -32.945000 411.069000
81.150000 -32.967000 411.346000
81.702000 -32.999000 411.749000
82.222000 -33.018000 411.985000
82.799000 -33.060000 412.502000
83.358000 -33.094000 412.925000
83.915000 -33.126000 413.334000
84.492000 -33.166000 413.832000
85.092000 -33.215000 414.442000
85.696000 -33.265000 415.062000
86.324000 -33.324000 415.794000
58.947000 -32.756000 414.648000
59.353000 -32.717000 414.154000
59.788000 -32.694000 413.873000
60.192000 -32.656000 413.389000
60.610000 -32.625000 413.000000
61.031000 -32.597000 412.639000
61.467000 -32.577000 412.387000
61.881000 -32.545000 411.989000
62.322000 -32.529000 411.778000
62.746000 -32.504000 411.460000
63.186000 -32.487000 411.245000
63.616000 -32.465000 410.975000
64.064000 -32.453000 410.821000
64.494000 -32.432000 410.553000
64.938000 -32.418000 410.380000
65.377000 -32.402000 410.178000
65.819000 -32.388000 410.001000
66.267000 -32.377000 409.860000
66.714000 -32.366000 409.713000
67.165000 -32.356000 409.593000
67.614000 -32.346000 409.462000
68.059000 -32.334000 409.312000
68.519000 -32.329000 409.252000
68.957000 -32.315000 409.067000
69.422000 -32.312000 409.036000
69.884000 -32.309000 408.992000
70.343000 -32.304000 408.933000
70.807000 -32.301000 408.898000
71.266000 -32.297000 408.838000
71.745000 -32.301000 408.894000
72.199000 -32.294000 408.802000
72.677000 -32.298000 408.850000
73.131000 -32.291000 408.768000
73.626000 -32.302000 408.906000
74.081000 -32.296000 408.830000
74.601000 -32.318000 409.104000
75.037000 -32.303000 408.921000
75.553000 -32.323000 409.172000
76.019000 -32.321000 409.150000
76.536000 -32.341000 409.405000
77.008000 -32.342000 409.413000
77.531000 -32.364000 409.692000
78.017000 -32.371000 409.778000
78.541000 -32.393000 410.056000
79.025000 -32.398000 410.125000
79.565000 -32.426000 410.482000
80.066000 -32.438000 410.634000
80.598000 -32.463000 410.940000
81.116000 -32.481000 411.173000
81.641000 -32.502000 411.440000
82.177000 -32.527000 411.760000
82.752000 -32.568000 412.269000
83.304000 -32.598000 412.655000
83.866000 -32.632000 413.089000
84.446000 -32.673000 413.607000
85.038000 -32.718000 414.179000
85.633000 -32.764000 414.760000
86.259000 -32.821000 415.480000
86.917000 -32.890000 416.346000
58.504000 -32.297000 414.878000
58.923000 -32.266000 414.480000
59.326000 -32.226000 413.966000
59.764000 -32.206000 413.706000
60.173000 -32.171000 413.255000
60.587000 -32.139000 412.842000
61.004000 -32.109000 412.459000
61.446000 -32.092000 412.246000
61.863000 -32.063000 411.873000
62.307000 -32.048000 411.677000
62.729000 -32.023000 411.349000
63.166000 -32.004000 411.116000
63.596000 -31.984000 410.847000
64.046000 -31.972000 410.705000
64.473000 -31.951000 410.423000
64.915000 -31.936000 410.238000
65.353000 -31.920000 410.031000
65.800000 -31.908000 409.881000
66.243000 -31.895000 409.708000
66.691000 -31.884000 409.573000
67.138000 -31.873000 409.427000
67.587000 -31.863000 409.299000
68.030000 -31.851000 409.142000
68.503000 -31.852000 409.158000
68.938000 -31.836000 408.952000
69.400000 -31.833000 408.908000
69.858000 -31.827000 408.842000
70.318000 -31.823000 408.784000
70.787000 -31.823000 408.785000
71.245000 -31.818000 408.718000
71.717000 -31.819000 408.731000
72.172000 -31.813000 408.653000
72.658000 -31.820000 408.743000
73.112000 -31.813000 408.657000
73.601000 -31.822000 408.770000
74.063000 -31.819000 408.727000
74.574000 -31.836000 408.955000
75.021000 -31.827000 408.831000
75.530000 -31.844000 409.049000
75.987000 -31.838000 408.980000
76.508000 -31.860000 409.254000
76.979000 -31.860000 409.261000
77.496000 -31.879000 409.508000
77.979000 -31.885000 409.576000
78.507000 -31.908000 409.879000
78.993000 -31.914000 409.956000
79.520000 -31.937000 410.245000
80.020000 -31.948000 410.393000
80.556000 -31.974000 410.727000
81.080000 -31.995000 410.992000
81.595000 -32.012000 411.211000
82.145000 -32.042000 411.596000
82.716000 -32.080000 412.091000
83.253000 -32.105000 412.404000
83.820000 -32.140000 412.863000
84.391000 -32.178000 413.341000
84.985000 -32.223000 413.919000
85.581000 -32.268000 414.505000
86.183000 -32.316000 415.113000
86.840000 -32.383000 415.978000
58.485000 -31.811000 414.744000
58.906000 -31.781000 414.356000
59.303000 -31.739000 413.804000
59.731000 -31.714000 413.481000
60.155000 -31.687000 413.133000
60.574000 -31.658000 412.753000
60.984000 -31.625000 412.322000
61.435000 -31.613000 412.169000
61.847000 -31.582000 411.767000
62.286000 -31.565000 411.541000
62.714000 -31.543000 411.248000
63.149000 -31.524000 411.006000
63.581000 -31.504000 410.748000
64.027000 -31.491000 410.580000
64.457000 -31.471000 410.319000
64.897000 -31.456000 410.124000
65.336000 -31.441000 409.922000
65.778000 -31.427000 409.743000
66.223000 -31.415000 409.585000
66.674000 -31.406000 409.465000
67.118000 -31.394000 409.309000
67.569000 -31.385000 409.195000
68.002000 -31.368000 408.973000
68.486000 -31.374000 409.057000
68.925000 -31.360000 408.874000
69.383000 -31.355000 408.808000
69.844000 -31.351000 408.757000
70.300000 -31.345000 408.679000
70.765000 -31.344000 408.656000
71.221000 -31.338000 408.577000
71.699000 -31.342000 408.629000
72.153000 -31.335000 408.546000
72.636000 -31.341000 408.619000
73.092000 -31.336000 408.549000
73.582000 -31.344000 408.662000
74.047000 -31.342000 408.640000
74.552000 -31.358000 408.838000
75.007000 -31.351000 408.755000
75.516000 -31.368000 408.972000
75.969000 -31.361000 408.880000
76.491000 -31.383000 409.164000
76.958000 -31.381000 409.148000
77.477000 -31.401000 409.407000
77.947000 -31.402000 409.409000
78.475000 -31.425000 409.711000
78.961000 -31.431000 409.793000
79.497000 -31.457000 410.131000
79.994000 -31.467000 410.262000
80.534000 -31.494000 410.613000
81.048000 -31.510000 410.828000
81.570000 -31.530000 411.085000
82.121000 -31.560000 411.478000
82.680000 -31.593000 411.910000
83.218000 -31.618000 412.229000
83.781000 -31.652000 412.672000
84.353000 -31.689000 413.154000
84.929000 -31.727000 413.650000
85.527000 -31.772000 414.246000
86.131000 -31.820000 414.861000
86.781000 -31.883000 415.692000
58.887000 -31.295000 414.222000
59.286000 -31.255000 413.691000
59.712000 -31.229000 413.348000
60.134000 -31.202000 412.989000
60.561000 -31.177000 412.667000
60.972000 -31.146000 412.244000
61.422000 -31.134000 412.086000
61.835000 -31.103000 411.682000
62.270000 -31.084000 411.434000
62.698000 -31.062000 411.145000
63.137000 -31.046000 410.930000
63.567000 -31.026000 410.658000
64.010000 -31.012000 410.473000
64.439000 -30.992000 410.206000
64.885000 -30.979000 410.044000
65.323000 -30.964000 409.840000
65.763000 -30.949000 409.648000
66.202000 -30.935000 409.457000
66.659000 -30.929000 409.374000
67.102000 -30.916000 409.211000
67.555000 -30.909000 409.108000
67.992000 -30.894000 408.910000
68.461000 -30.893000 408.906000
68.910000 -30.884000 408.788000
69.369000 -30.880000 408.724000
69.827000 -30.875000 408.657000
70.280000 -30.868000 408.565000
70.746000 -30.866000 408.544000
71.205000 -30.862000 408.485000
71.680000 -30.864000 408.519000
72.134000 -30.858000 408.439000
72.616000 -30.863000 408.508000
73.075000 -30.859000 408.454000
73.557000 -30.865000 408.527000
74.031000 -30.867000 408.551000
74.533000 -30.880000 408.731000
74.989000 -30.875000 408.659000
75.497000 -30.891000 408.870000
75.954000 -30.886000 408.804000
76.473000 -30.906000 409.067000
76.939000 -30.904000 409.047000
77.456000 -30.923000 409.297000
77.926000 -30.923000 409.299000
78.445000 -30.942000 409.551000
78.940000 -30.952000 409.680000
79.477000 -30.978000 410.027000
79.966000 -30.985000 410.117000
80.506000 -31.012000 410.470000
81.028000 -31.031000 410.728000
81.556000 -31.052000 411.012000
82.094000 -31.078000 411.345000
82.642000 -31.106000 411.722000
83.189000 -31.134000 412.088000
83.744000 -31.164000 412.491000
84.311000 -31.199000 412.949000
84.894000 -31.239000 413.478000
85.486000 -31.282000 414.047000
86.088000 -31.328000 414.657000
86.736000 -31.390000 415.480000
58.869000 -30.810000 414.098000
59.273000 -30.773000 413.600000
59.699000 -30.748000 413.263000
60.116000 -30.718000 412.862000
60.547000 -30.696000 412.570000
60.961000 -30.666000 412.166000
61.406000 -30.652000 411.977000
61.821000 -30.624000 411.592000
62.252000 -30.603000 411.318000
62.682000 -30.582000 411.036000
63.121000 -30.567000 410.824000
63.553000 -30.548000 410.569000
63.992000 -30.532000 410.356000
64.417000 -30.510000 410.066000
64.869000 -30.501000 409.943000
65.307000 -30.486000 409.742000
65.751000 -30.474000 409.574000
66.190000 -30.459000 409.381000
66.639000 -30.450000 409.254000
67.082000 -30.437000 409.087000
67.547000 -30.435000 409.061000
67.983000 -30.420000 408.856000
68.447000 -30.417000 408.821000
68.896000 -30.409000 408.703000
69.346000 -30.400000 408.588000
69.808000 -30.397000 408.546000
70.266000 -30.392000 408.480000
70.736000 -30.393000 408.487000
71.190000 -30.386000 408.399000
71.663000 -30.388000 408.424000
72.122000 -30.384000 408.366000
72.597000 -30.387000 408.405000
73.055000 -30.382000 408.342000
73.544000 -30.390000 408.451000
74.016000 -30.391000 408.471000
74.512000 -30.402000 408.616000
74.970000 -30.398000 408.554000
75.479000 -30.414000 408.773000
75.941000 -30.411000 408.732000
76.458000 -30.430000 408.989000
76.921000 -30.427000 408.953000
77.433000 -30.444000 409.175000
77.915000 -30.449000 409.238000
78.435000 -30.468000 409.502000
78.919000 -30.474000 409.574000
79.456000 -30.499000 409.918000
79.949000 -30.507000 410.030000
80.486000 -30.533000 410.369000
81.003000 -30.550000 410.600000
81.538000 -30.574000 410.923000
82.067000 -30.595000 411.209000
82.609000 -30.621000 411.556000
83.159000 -30.650000 411.939000
83.728000 -30.685000 412.412000
84.293000 -30.718000 412.859000
84.868000 -30.755000 413.352000
85.462000 -30.797000 413.928000
86.064000 -30.843000 414.542000
86.702000 -30.901000 415.313000
87.316000 -30.949000 415.967000
58.858000 -30.329000 414.018000
59.262000 -30.292000 413.520000
59.686000 -30.267000 413.172000
60.104000 -30.238000 412.779000
60.535000 -30.217000 412.487000
60.946000 -30.186000 412.067000
61.390000 -30.172000 411.873000
61.804000 -30.143000 411.480000
62.236000 -30.123000 411.212000
62.667000 -30.104000 410.943000
63.107000 -30.088000 410.731000
63.536000 -30.068000 410.459000
63.978000 -30.054000 410.270000
64.406000 -30.034000 409.993000
64.852000 -30.023000 409.839000
65.294000 -30.010000 409.662000
65.742000 -29.999000 409.521000
66.182000 -29.985000 409.331000
66.632000 -29.976000 409.208000
67.068000 -29.961000 409.000000
67.537000 -29.961000 408.999000
67.967000 -29.944000 408.763000
68.434000 -29.943000 408.747000
68.886000 -29.935000 408.646000
69.333000 -29.925000 408.512000
69.793000 -29.922000 408.459000
70.254000 -29.918000 408.414000
70.727000 -29.920000 408.433000
71.180000 -29.913000 408.344000
71.654000 -29.915000 408.374000
72.113000 -29.911000 408.318000
72.587000 -29.913000 408.343000
73.048000 -29.910000 408.302000
73.532000 -29.916000 408.386000
73.994000 -29.913000 408.346000
74.485000 -29.922000 408.471000
74.955000 -29.923000 408.477000
75.460000 -29.937000 408.667000
75.919000 -29.933000 408.614000
76.435000 -29.951000 408.865000
76.906000 -29.952000 408.873000
77.422000 -29.970000 409.118000
77.894000 -29.971000 409.128000
78.409000 -29.988000 409.367000
78.902000 -29.997000 409.487000
79.437000 -30.021000 409.819000
79.931000 -30.030000 409.939000
80.464000 -30.053000 410.259000
80.973000 -30.067000 410.447000
81.505000 -30.090000 410.757000
82.048000 -30.116000 411.113000
82.594000 -30.143000 411.480000
83.138000 -30.169000 411.834000
83.705000 -30.203000 412.299000
84.267000 -30.235000 412.734000
84.842000 -30.271000 413.226000
85.440000 -30.315000 413.825000
86.026000 -30.354000 414.359000
86.649000 -30.405000 415.062000
87.275000 -30.457000 415.772000
58.845000 -29.847000 413.925000
59.251000 -29.812000 413.445000
59.670000 -29.784000 413.059000
60.090000 -29.757000 412.683000
60.524000 -29.738000 412.411000
60.933000 -29.706000 411.977000
61.374000 -29.691000 411.761000
61.792000 -29.664000 411.396000
62.222000 -29.644000 411.118000
62.655000 -29.626000 410.862000
63.089000 -29.608000 410.614000
63.516000 -29.587000 410.328000
63.969000 -29.579000 410.210000
64.397000 -29.559000 409.935000
64.842000 -29.548000 409.777000
65.281000 -29.533000 409.575000
65.732000 -29.524000 409.457000
66.172000 -29.511000 409.269000
66.625000 -29.503000 409.163000
67.058000 -29.488000 408.944000
67.524000 -29.486000 408.920000
67.964000 -29.473000 408.743000
68.420000 -29.467000 408.660000
68.876000 -29.462000 408.584000
69.329000 -29.455000 408.487000
69.789000 -29.451000 408.435000
70.236000 -29.442000 408.311000
70.706000 -29.442000 408.312000
71.166000 -29.438000 408.261000
71.642000 -29.442000 408.307000
72.101000 -29.437000 408.249000
72.578000 -29.441000 408.295000
73.037000 -29.437000 408.243000
73.519000 -29.442000 408.315000
73.984000 -29.440000 408.291000
74.472000 -29.448000 408.399000
74.943000 -29.449000 408.411000
75.440000 -29.460000 408.558000
75.909000 -29.460000 408.560000
76.427000 -29.478000 408.819000
76.888000 -29.475000 408.777000
77.407000 -29.494000 409.040000
77.883000 -29.497000 409.070000
78.401000 -29.515000 409.326000
78.890000 -29.522000 409.422000
79.419000 -29.544000 409.724000
79.919000 -29.555000 409.877000
80.452000 -29.578000 410.196000
80.953000 -29.589000 410.348000
81.490000 -29.613000 410.682000
82.031000 -29.638000 411.028000
82.571000 -29.662000 411.366000
83.118000 -29.689000 411.734000
83.679000 -29.720000 412.170000
84.240000 -29.751000 412.602000
84.808000 -29.784000 413.061000
85.398000 -29.825000 413.618000
85.994000 -29.867000 414.202000
86.623000 -29.920000 414.938000
87.243000 -29.969000 415.620000
58.835000 -29.367000 413.859000
59.241000 -29.333000 413.378000
59.661000 -29.305000 412.997000
60.082000 -29.279000 412.629000
60.514000 -29.259000 412.344000
60.917000 -29.226000 411.872000
61.364000 -29.213000 411.695000
61.787000 -29.190000 411.362000
62.212000 -29.167000 411.050000
62.648000 -29.151000 410.813000
63.083000 -29.134000 410.576000
63.512000 -29.114000 410.304000
63.962000 -29.105000 410.168000
64.396000 -29.088000 409.934000
64.839000 -29.075000 409.754000
65.276000 -29.061000 409.545000
65.723000 -29.050000 409.402000
66.164000 -29.037000 409.219000
66.619000 -29.031000 409.132000
67.054000 -29.016000 408.919000
67.518000 -29.014000 408.886000
67.957000 -29.001000 408.699000
68.408000 -28.993000 408.592000
68.873000 -28.991000 408.566000
69.326000 -28.984000 408.469000
69.783000 -28.980000 408.403000
70.232000 -28.971000 408.286000
70.702000 -28.972000 408.294000
71.156000 -28.966000 408.208000
71.631000 -28.968000 408.240000
72.088000 -28.963000 408.174000
72.571000 -28.969000 408.258000
73.030000 -28.965000 408.199000
73.505000 -28.968000 408.237000
73.976000 -28.969000 408.251000
74.467000 -28.977000 408.372000
74.944000 -28.980000 408.412000
75.433000 -28.988000 408.525000
75.903000 -28.988000 408.529000
76.418000 -29.006000 408.774000
76.888000 -29.006000 408.775000
77.395000 -29.020000 408.976000
77.877000 -29.025000 409.042000
78.395000 -29.042000 409.290000
78.879000 -29.048000 409.365000
79.402000 -29.067000 409.637000
79.903000 -29.078000 409.795000
80.441000 -29.103000 410.140000
80.943000 -29.114000 410.297000
81.482000 -29.138000 410.637000
82.026000 -29.164000 411.002000
82.556000 -29.185000 411.293000
83.100000 -29.210000 411.645000
83.651000 -29.237000 412.033000
84.203000 -29.264000 412.417000
84.779000 -29.300000 412.919000
85.374000 -29.341000 413.504000
85.969000 -29.383000 414.084000
86.604000 -29.437000 414.844000
87.214000 -29.482000 415.481000
58.824000 -28.886000 413.781000
59.236000 -28.855000 413.340000
59.654000 -28.828000 412.948000
60.069000 -28.800000 412.545000
60.506000 -28.782000 412.289000
60.911000 -28.750000 411.828000
61.353000 -28.735000 411.623000
61.781000 -28.715000 411.328000
62.207000 -28.693000 411.021000
62.642000 -28.676000 410.774000
63.081000 -28.661000 410.562000
63.505000 -28.640000 410.260000
63.953000 -28.630000 410.110000
64.389000 -28.614000 409.886000
64.833000 -28.602000 409.717000
65.268000 -28.587000 409.494000
65.715000 -28.577000 409.352000
66.156000 -28.564000 409.169000
66.607000 -28.556000 409.054000
67.049000 -28.545000 408.889000
67.512000 -28.541000 408.844000
67.952000 -28.529000 408.668000
68.404000 -28.522000 408.566000
68.863000 -28.518000 408.505000
69.318000 -28.512000 408.425000
69.778000 -28.508000 408.370000
70.226000 -28.500000 408.250000
70.701000 -28.503000 408.287000
71.152000 -28.495000 408.185000
71.621000 -28.495000 408.186000
72.074000 -28.489000 408.098000
72.554000 -28.494000 408.160000
73.010000 -28.489000 408.092000
73.492000 -28.494000 408.163000
73.960000 -28.494000 408.161000
74.456000 -28.504000 408.312000
74.927000 -28.505000 408.323000
75.425000 -28.516000 408.477000
75.899000 -28.518000 408.508000
76.417000 -28.536000 408.768000
76.882000 -28.534000 408.744000
77.387000 -28.548000 408.932000
77.868000 -28.552000 408.996000
78.385000 -28.569000 409.240000
78.872000 -28.575000 409.331000
79.399000 -28.596000 409.624000
79.897000 -28.606000 409.765000
80.440000 -28.631000 410.133000
80.939000 -28.641000 410.276000
81.477000 -28.665000 410.612000
82.002000 -28.684000 410.880000
82.538000 -28.706000 411.201000
83.085000 -28.732000 411.572000
83.636000 -28.759000 411.960000
84.191000 -28.787000 412.360000
84.772000 -28.823000 412.883000
85.359000 -28.862000 413.432000
85.941000 -28.898000 413.948000
86.578000 -28.952000 414.723000
87.180000 -28.994000 415.323000
87.868000 -29.063000 416.322000
58.815000 -28.406000 413.716000
59.226000 -28.376000 413.271000
59.650000 -28.352000 412.917000
60.064000 -28.323000 412.507000
60.504000 -28.308000 412.278000
60.910000 -28.276000 411.823000
61.352000 -28.262000 411.614000
61.775000 -28.239000 411.283000
62.203000 -28.219000 410.993000
62.638000 -28.203000 410.749000
63.073000 -28.187000 410.513000
63.501000 -28.167000 410.229000
63.950000 -28.157000 410.088000
64.384000 -28.141000 409.855000
64.824000 -28.128000 409.664000
65.265000 -28.115000 409.476000
65.711000 -28.105000 409.326000
66.152000 -28.093000 409.146000
66.603000 -28.085000 409.031000
67.039000 -28.071000 408.825000
67.505000 -28.069000 408.805000
67.946000 -28.058000 408.637000
68.401000 -28.052000 408.549000
68.862000 -28.048000 408.498000
69.311000 -28.040000 408.382000
69.772000 -28.037000 408.336000
70.224000 -28.030000 408.238000
70.697000 -28.032000 408.260000
71.150000 -28.026000 408.172000
71.615000 -28.024000 408.153000
72.071000 -28.019000 408.079000
72.544000 -28.021000 408.105000
73.007000 -28.019000 408.074000
73.479000 -28.020000 408.093000
73.949000 -28.021000 408.102000
74.437000 -28.028000 408.206000
74.919000 -28.033000 408.276000
75.419000 -28.045000 408.446000
75.903000 -28.050000 408.528000
76.416000 -28.066000 408.761000
76.884000 -28.066000 408.754000
77.392000 -28.080000 408.959000
77.870000 -28.083000 409.004000
78.380000 -28.097000 409.215000
78.867000 -28.103000 409.301000
79.383000 -28.120000 409.541000
79.886000 -28.131000 409.710000
80.426000 -28.156000 410.062000
80.927000 -28.166000 410.216000
81.466000 -28.190000 410.561000
82.005000 -28.213000 410.897000
82.537000 -28.233000 411.197000
83.076000 -28.256000 411.529000
83.625000 -28.282000 411.905000
84.187000 -28.312000 412.341000
84.768000 -28.348000 412.862000
85.360000 -28.387000 413.434000
85.928000 -28.418000 413.885000
86.557000 -28.469000 414.620000
87.171000 -28.514000 415.276000
87.856000 -28.581000 416.262000
57.567000 -28.018000 414.996000
57.983000 -27.988000 414.561000
58.378000 -27.950000 413.988000
58.807000 -27.928000 413.663000
59.220000 -27.899000 413.231000
59.644000 -27.875000 412.881000
60.061000 -27.848000 412.488000
60.498000 -27.832000 412.238000
60.910000 -27.804000 411.822000
61.352000 -27.790000 411.618000
61.775000 -27.767000 411.284000
62.201000 -27.747000 410.980000
62.634000 -27.729000 410.725000
63.069000 -27.713000 410.486000
63.495000 -27.694000 410.193000
63.949000 -27.686000 410.085000
64.380000 -27.669000 409.829000
64.823000 -27.657000 409.655000
65.262000 -27.644000 409.457000
65.710000 -27.635000 409.321000
66.149000 -27.622000 409.131000
66.606000 -27.617000 409.052000
67.040000 -27.602000 408.834000
67.499000 -27.597000 408.767000
67.947000 -27.589000 408.639000
68.400000 -27.582000 408.544000
68.859000 -27.578000 408.484000
69.309000 -27.571000 408.372000
69.774000 -27.569000 408.347000
70.220000 -27.560000 408.212000
70.693000 -27.562000 408.242000
71.142000 -27.554000 408.129000
71.609000 -27.553000 408.119000
72.058000 -27.546000 408.006000
72.538000 -27.550000 408.068000
73.002000 -27.549000 408.045000
73.474000 -27.550000 408.065000
73.941000 -27.549000 408.058000
74.425000 -27.555000 408.140000
74.902000 -27.558000 408.184000
75.419000 -27.576000 408.446000
75.897000 -27.579000 408.495000
76.410000 -27.595000 408.731000
76.884000 -27.596000 408.753000
77.387000 -27.609000 408.934000
77.872000 -27.614000 409.012000
78.381000 -27.628000 409.218000
78.861000 -27.631000 409.273000
79.385000 -27.650000 409.553000
79.886000 -27.661000 409.710000
80.420000 -27.683000 410.033000
80.926000 -27.695000 410.208000
81.465000 -27.718000 410.552000
81.995000 -27.738000 410.847000
82.525000 -27.757000 411.137000
83.075000 -27.783000 411.523000
83.622000 -27.808000 411.892000
84.184000 -27.838000 412.327000
84.752000 -27.869000 412.786000
85.347000 -27.908000 413.373000
85.927000 -27.943000 413.882000
86.547000 -27.989000 414.575000
87.168000 -28.036000 415.262000
87.857000 -28.104000 416.268000
57.562000 -27.539000 414.959000
57.980000 -27.511000 414.541000
58.378000 -27.474000 413.986000
58.807000 -27.453000 413.660000
59.217000 -27.422000 413.205000
59.639000 -27.398000 412.843000
60.058000 -27.374000 412.469000
60.497000 -27.358000 412.232000
60.905000 -27.329000 411.790000
61.352000 -27.317000 411.614000
61.776000 -27.295000 411.289000
62.199000 -27.274000 410.968000
62.637000 -27.259000 410.740000
63.071000 -27.243000 410.497000
63.497000 -27.223000 410.208000
63.945000 -27.213000 410.057000
64.377000 -27.197000 409.813000
64.823000 -27.187000 409.654000
65.265000 -27.175000 409.475000
65.710000 -27.165000 409.322000
66.153000 -27.153000 409.151000
66.608000 -27.148000 409.063000
67.043000 -27.133000 408.851000
67.503000 -27.130000 408.796000
67.947000 -27.120000 408.641000
68.405000 -27.115000 408.574000
68.864000 -27.111000 408.515000
69.316000 -27.104000 408.414000
69.783000 -27.104000 408.401000
70.232000 -27.096000 408.287000
70.702000 -27.096000 408.289000
71.139000 -27.084000 408.108000
71.592000 -27.078000 408.017000
72.049000 -27.074000 407.953000
72.526000 -27.077000 408.001000
72.995000 -27.077000 408.005000
73.465000 -27.078000 408.013000
73.938000 -27.080000 408.038000
74.403000 -27.078000 408.021000
74.901000 -27.089000 408.178000
75.426000 -27.109000 408.485000
75.901000 -27.111000 408.520000
76.415000 -27.127000 408.756000
76.890000 -27.129000 408.785000
77.393000 -27.141000 408.962000
77.869000 -27.143000 408.998000
78.380000 -27.158000 409.215000
78.868000 -27.164000 409.310000
79.383000 -27.179000 409.541000
79.884000 -27.190000 409.698000
80.423000 -27.213000 410.049000
80.919000 -27.221000 410.175000
81.450000 -27.241000 410.477000
81.978000 -27.260000 410.764000
82.515000 -27.282000 411.086000
83.083000 -27.313000 411.561000
83.619000 -27.334000 411.877000
84.163000 -27.357000 412.225000
84.740000 -27.391000 412.730000
85.339000 -27.431000 413.333000
85.915000 -27.463000 413.823000
86.541000 -27.511000 414.545000
57.559000 -27.061000 414.935000
57.977000 -27.034000 414.520000
58.382000 -27.001000 414.013000
58.807000 -26.978000 413.659000
59.218000 -26.949000 413.217000
59.641000 -26.926000 412.861000
60.058000 -26.900000 412.464000
60.496000 -26.884000 412.221000
60.902000 -26.854000 411.766000
61.345000 -26.841000 411.569000
61.775000 -26.823000 411.288000
62.201000 -26.803000 410.982000
62.640000 -26.789000 410.763000
63.076000 -26.774000 410.532000
63.498000 -26.753000 410.213000
63.944000 -26.742000 410.048000
64.375000 -26.726000 409.796000
64.824000 -26.717000 409.659000
65.264000 -26.704000 409.471000
65.708000 -26.694000 409.310000
66.145000 -26.680000 409.103000
66.605000 -26.677000 409.045000
67.043000 -26.664000 408.849000
67.510000 -26.663000 408.833000
67.951000 -26.652000 408.664000
68.402000 -26.645000 408.553000
68.866000 -26.643000 408.524000
69.329000 -26.640000 408.489000
69.795000 -26.639000 408.473000
70.245000 -26.632000 408.359000
70.712000 -26.631000 408.351000
71.141000 -26.616000 408.120000
71.588000 -26.608000 407.996000
72.030000 -26.599000 407.848000
72.508000 -26.602000 407.903000
72.979000 -26.603000 407.917000
73.462000 -26.608000 407.996000
73.931000 -26.608000 408.000000
74.401000 -26.609000 408.011000
74.902000 -26.621000 408.188000
75.441000 -26.645000 408.565000
75.923000 -26.650000 408.635000
76.431000 -26.664000 408.845000
76.893000 -26.661000 408.804000
77.394000 -26.672000 408.970000
77.868000 -26.673000 408.994000
78.385000 -26.689000 409.241000
78.866000 -26.693000 409.300000
79.385000 -26.709000 409.549000
79.884000 -26.719000 409.698000
80.428000 -26.744000 410.071000
80.922000 -26.751000 410.189000
81.453000 -26.771000 410.494000
81.982000 -26.790000 410.782000
82.515000 -26.810000 411.086000
83.071000 -26.837000 411.503000
83.615000 -26.860000 411.856000
84.168000 -26.886000 412.248000
84.740000 -26.917000 412.727000
85.336000 -26.955000 413.318000
85.914000 -26.988000 413.818000
86.547000 -27.037000 414.572000
57.561000 -26.585000 414.948000
57.977000 -26.558000 414.518000
58.385000 -26.527000 414.035000
58.811000 -26.505000 413.692000
59.224000 -26.477000 413.258000
59.644000 -26.453000 412.880000
60.061000 -26.428000 412.489000
60.501000 -26.413000 412.258000
60.906000 -26.383000 411.795000
61.345000 -26.369000 411.569000
61.778000 -26.352000 411.303000
62.207000 -26.333000 411.020000
62.645000 -26.319000 410.793000
63.076000 -26.302000 410.530000
63.500000 -26.283000 410.228000
63.946000 -26.272000 410.064000
64.378000 -26.256000 409.816000
64.823000 -26.246000 409.658000
65.269000 -26.236000 409.500000
65.712000 -26.225000 409.331000
66.148000 -26.212000 409.121000
66.605000 -26.207000 409.043000
67.045000 -26.195000 408.860000
67.512000 -26.194000 408.846000
67.951000 -26.183000 408.664000
68.403000 -26.176000 408.563000
68.874000 -26.176000 408.570000
69.335000 -26.173000 408.522000
69.809000 -26.175000 408.551000
70.262000 -26.169000 408.457000
70.721000 -26.166000 408.403000
71.139000 -26.147000 408.109000
71.586000 -26.139000 407.988000
72.028000 -26.129000 407.834000
72.503000 -26.132000 407.876000
72.977000 -26.134000 407.903000
73.458000 -26.139000 407.977000
73.920000 -26.136000 407.940000
74.407000 -26.143000 408.041000
74.911000 -26.155000 408.234000
75.440000 -26.176000 408.559000
75.934000 -26.185000 408.696000
76.447000 -26.199000 408.927000
76.898000 -26.193000 408.828000
77.396000 -26.203000 408.980000
77.866000 -26.203000 408.981000
78.385000 -26.219000 409.241000
78.878000 -26.227000 409.360000
79.398000 -26.244000 409.620000
79.889000 -26.250000 409.724000
80.426000 -26.272000 410.061000
80.926000 -26.281000 410.209000
81.460000 -26.302000 410.526000
82.003000 -26.325000 410.885000
82.530000 -26.343000 411.164000
83.075000 -26.366000 411.525000
83.622000 -26.389000 411.890000
84.183000 -26.417000 412.322000
84.756000 -26.448000 412.804000
85.346000 -26.484000 413.369000
85.924000 -26.516000 413.864000
86.537000 -26.558000 414.525000
57.567000 -26.112000 414.995000
57.981000 -26.083000 414.547000
58.385000 -26.051000 414.039000
58.820000 -26.033000 413.749000
59.230000 -26.005000 413.300000
59.649000 -25.981000 412.912000
60.069000 -25.957000 412.542000
60.502000 -25.940000 412.263000
60.912000 -25.913000 411.838000
61.352000 -25.899000 411.614000
61.779000 -25.880000 411.312000
62.210000 -25.863000 411.040000
62.645000 -25.847000 410.795000
63.080000 -25.832000 410.556000
63.506000 -25.814000 410.260000
63.957000 -25.806000 410.134000
64.391000 -25.791000 409.902000
64.834000 -25.780000 409.725000
65.271000 -25.767000 409.517000
65.717000 -25.757000 409.366000
66.156000 -25.745000 409.170000
66.613000 -25.740000 409.094000
67.048000 -25.727000 408.882000
67.506000 -25.723000 408.813000
67.954000 -25.714000 408.681000
68.409000 -25.709000 408.600000
68.878000 -25.709000 408.596000
69.340000 -25.706000 408.556000
69.813000 -25.708000 408.574000
70.270000 -25.703000 408.504000
70.729000 -25.700000 408.448000
71.144000 -25.680000 408.136000
71.591000 -25.672000 408.013000
72.033000 -25.663000 407.866000
72.506000 -25.664000 407.888000
72.984000 -25.668000 407.945000
73.465000 -25.672000 408.012000
73.930000 -25.671000 407.996000
74.422000 -25.679000 408.122000
74.915000 -25.688000 408.258000
75.439000 -25.707000 408.558000
75.923000 -25.712000 408.636000
76.437000 -25.727000 408.876000
76.899000 -25.724000 408.835000
77.399000 -25.734000 408.997000
77.872000 -25.735000 409.016000
78.384000 -25.749000 409.235000
78.877000 -25.757000 409.354000
79.388000 -25.770000 409.567000
79.889000 -25.780000 409.721000
80.430000 -25.802000 410.082000
80.941000 -25.815000 410.286000
81.468000 -25.833000 410.566000
82.000000 -25.852000 410.873000
82.531000 -25.871000 411.169000
83.085000 -25.896000 411.574000
83.637000 -25.921000 411.965000
84.195000 -25.947000 412.381000
84.765000 -25.977000 412.851000
85.346000 -26.009000 413.368000
85.921000 -26.040000 413.851000
86.555000 -26.087000 414.611000
87.166000 -26.128000 415.254000
87.835000 -26.185000 416.163000
58.393000 -25.580000 414.096000
58.827000 -25.562000 413.804000
59.237000 -25.533000 413.347000
59.652000 -25.508000 412.936000
60.076000 -25.486000 412.587000
60.509000 -25.469000 412.312000
60.919000 -25.443000 411.881000
61.361000 -25.430000 411.676000
61.785000 -25.410000 411.354000
62.211000 -25.391000 411.044000
62.647000 -25.377000 410.811000
63.086000 -25.363000 410.598000
63.515000 -25.346000 410.322000
63.965000 -25.338000 410.186000
64.401000 -25.324000 409.964000
64.841000 -25.312000 409.766000
65.280000 -25.300000 409.572000
65.723000 -25.289000 409.399000
66.165000 -25.279000 409.228000
66.621000 -25.274000 409.142000
67.058000 -25.261000 408.939000
67.515000 -25.256000 408.866000
67.962000 -25.248000 408.731000
68.423000 -25.245000 408.681000
68.882000 -25.241000 408.621000
69.343000 -25.238000 408.569000
69.815000 -25.239000 408.586000
70.269000 -25.234000 408.500000
70.731000 -25.231000 408.461000
71.150000 -25.214000 408.172000
71.605000 -25.209000 408.096000
72.048000 -25.200000 407.949000
72.526000 -25.203000 408.005000
72.999000 -25.205000 408.028000
73.482000 -25.210000 408.110000
73.949000 -25.209000 408.098000
74.446000 -25.219000 408.254000
74.925000 -25.222000 408.309000
75.444000 -25.239000 408.581000
75.920000 -25.241000 408.618000
76.440000 -25.258000 408.891000
76.906000 -25.257000 408.870000
77.405000 -25.267000 409.030000
77.881000 -25.268000 409.059000
78.395000 -25.283000 409.290000
78.882000 -25.288000 409.381000
79.403000 -25.304000 409.643000
79.901000 -25.313000 409.783000
80.434000 -25.333000 410.105000
80.942000 -25.345000 410.294000
81.476000 -25.364000 410.609000
82.011000 -25.384000 410.929000
82.551000 -25.405000 411.266000
83.096000 -25.427000 411.628000
83.642000 -25.449000 411.987000
84.199000 -25.475000 412.397000
84.767000 -25.503000 412.860000
85.350000 -25.536000 413.385000
85.919000 -25.564000 413.839000
86.564000 -25.614000 414.654000
87.171000 -25.653000 415.280000
87.832000 -25.706000 416.150000
58.398000 -25.106000 414.127000
58.832000 -25.089000 413.840000
59.245000 -25.062000 413.402000
59.666000 -25.039000 413.030000
60.088000 -25.018000 412.674000
60.518000 -25.000000 412.372000
60.925000 -24.972000 411.923000
61.369000 -24.961000 411.729000
61.793000 -24.941000 411.403000
62.220000 -24.923000 411.107000
62.657000 -24.909000 410.874000
63.096000 -24.896000 410.661000
63.526000 -24.880000 410.396000
63.972000 -24.870000 410.234000
64.408000 -24.856000 410.009000
64.847000 -24.844000 409.808000
65.289000 -24.833000 409.627000
65.730000 -24.822000 409.444000
66.170000 -24.811000 409.259000
66.630000 -24.807000 409.196000
67.068000 -24.795000 409.002000
67.526000 -24.791000 408.932000
67.972000 -24.782000 408.791000
68.432000 -24.779000 408.733000
68.893000 -24.776000 408.685000
69.352000 -24.772000 408.623000
69.816000 -24.770000 408.593000
70.269000 -24.765000 408.499000
70.734000 -24.763000 408.474000
71.171000 -24.752000 408.295000
71.623000 -24.746000 408.195000
72.070000 -24.739000 408.073000
72.540000 -24.740000 408.084000
73.019000 -24.743000 408.138000
73.502000 -24.748000 408.219000
73.970000 -24.748000 408.216000
74.468000 -24.757000 408.377000
74.942000 -24.759000 408.402000
75.453000 -24.773000 408.630000
75.929000 -24.775000 408.668000
76.441000 -24.789000 408.897000
76.907000 -24.788000 408.880000
77.411000 -24.799000 409.062000
77.893000 -24.803000 409.126000
78.406000 -24.816000 409.351000
78.890000 -24.821000 409.423000
79.414000 -24.838000 409.703000
79.918000 -24.848000 409.875000
80.447000 -24.866000 410.168000
80.952000 -24.876000 410.342000
81.488000 -24.896000 410.667000
82.024000 -24.916000 410.991000
82.555000 -24.934000 411.285000
83.108000 -24.958000 411.685000
83.647000 -24.978000 412.013000
84.213000 -25.005000 412.468000
84.786000 -25.035000 412.954000
85.375000 -25.068000 413.508000
85.950000 -25.098000 413.992000
86.573000 -25.140000 414.697000
87.200000 -25.184000 415.417000
87.860000 -25.237000 416.283000
58.416000 -24.638000 414.256000
58.841000 -24.617000 413.902000
59.251000 -24.590000 413.444000
59.673000 -24.568000 413.078000
60.092000 -24.545000 412.698000
60.523000 -24.528000 412.406000
60.932000 -24.502000 411.969000
61.380000 -24.492000 411.803000
61.805000 -24.473000 411.481000
62.231000 -24.455000 411.174000
62.669000 -24.442000 410.954000
63.103000 -24.427000 410.710000
63.537000 -24.413000 410.465000
63.984000 -24.403000 410.307000
64.416000 -24.388000 410.058000
64.859000 -24.378000 409.884000
65.301000 -24.367000 409.700000
65.740000 -24.356000 409.507000
66.183000 -24.346000 409.337000
66.634000 -24.339000 409.223000
67.075000 -24.328000 409.048000
67.538000 -24.326000 409.005000
67.982000 -24.317000 408.852000
68.443000 -24.313000 408.798000
68.898000 -24.308000 408.712000
69.353000 -24.303000 408.627000
69.819000 -24.302000 408.611000
70.271000 -24.296000 408.511000
70.741000 -24.297000 408.516000
71.184000 -24.288000 408.366000
71.649000 -24.287000 408.345000
72.092000 -24.278000 408.199000
72.570000 -24.281000 408.252000
73.034000 -24.279000 408.222000
73.520000 -24.285000 408.318000
73.982000 -24.283000 408.281000
74.490000 -24.296000 408.498000
74.955000 -24.294000 408.476000
75.478000 -24.312000 408.767000
75.938000 -24.309000 408.716000
76.446000 -24.321000 408.923000
76.916000 -24.321000 408.924000
77.427000 -24.334000 409.144000
77.913000 -24.339000 409.229000
78.424000 -24.352000 409.444000
78.911000 -24.357000 409.533000
79.431000 -24.372000 409.789000
79.934000 -24.382000 409.957000
80.461000 -24.399000 410.241000
80.970000 -24.411000 410.433000
81.503000 -24.429000 410.742000
82.041000 -24.449000 411.077000
82.577000 -24.468000 411.395000
83.121000 -24.489000 411.749000
83.668000 -24.511000 412.118000
84.237000 -24.539000 412.583000
84.813000 -24.568000 413.082000
85.413000 -24.605000 413.692000
85.987000 -24.633000 414.168000
86.592000 -24.670000 414.790000
58.426000 -24.167000 414.330000
58.854000 -24.147000 413.993000
59.262000 -24.119000 413.519000
59.686000 -24.099000 413.167000
60.110000 -24.079000 412.824000
60.537000 -24.060000 412.500000
60.950000 -24.036000 412.093000
61.397000 -24.026000 411.920000
61.815000 -24.005000 411.549000
62.247000 -23.989000 411.285000
62.685000 -23.976000 411.058000
63.111000 -23.958000 410.759000
63.547000 -23.945000 410.530000
63.992000 -23.935000 410.361000
64.429000 -23.922000 410.139000
64.868000 -23.910000 409.937000
65.313000 -23.901000 409.781000
65.753000 -23.890000 409.590000
66.200000 -23.882000 409.446000
66.649000 -23.874000 409.314000
67.086000 -23.862000 409.114000
67.549000 -23.860000 409.074000
67.992000 -23.851000 408.914000
68.453000 -23.848000 408.862000
68.906000 -23.842000 408.765000
69.362000 -23.838000 408.686000
69.824000 -23.835000 408.643000
70.282000 -23.831000 408.574000
70.750000 -23.831000 408.566000
71.196000 -23.823000 408.437000
71.665000 -23.823000 408.436000
72.115000 -23.817000 408.327000
72.597000 -23.821000 408.402000
73.058000 -23.818000 408.360000
73.542000 -23.823000 408.440000
74.002000 -23.820000 408.390000
74.501000 -23.830000 408.554000
74.961000 -23.827000 408.505000
75.480000 -23.843000 408.775000
75.943000 -23.841000 408.741000
76.456000 -23.854000 408.974000
76.923000 -23.854000 408.964000
77.436000 -23.867000 409.192000
77.915000 -23.870000 409.240000
78.424000 -23.882000 409.445000
78.920000 -23.890000 409.577000
79.437000 -23.904000 409.820000
79.941000 -23.913000 409.988000
80.474000 -23.932000 410.310000
80.989000 -23.945000 410.530000
81.518000 -23.962000 410.822000
82.067000 -23.984000 411.205000
82.602000 -24.003000 411.519000
83.136000 -24.021000 411.827000
83.700000 -24.047000 412.272000
84.274000 -24.075000 412.766000
84.840000 -24.102000 413.216000
85.423000 -24.132000 413.740000
86.008000 -24.163000 414.270000
86.631000 -24.204000 414.976000
58.041000 -23.728000 414.979000
58.448000 -23.700000 414.483000
58.866000 -23.677000 414.079000
59.272000 -23.649000 413.593000
59.698000 -23.629000 413.251000
60.124000 -23.610000 412.922000
60.549000 -23.591000 412.583000
60.967000 -23.569000 412.204000
61.403000 -23.555000 411.959000
61.823000 -23.535000 411.605000
62.262000 -23.522000 411.380000
62.695000 -23.507000 411.121000
63.128000 -23.493000 410.867000
63.560000 -23.478000 410.609000
64.004000 -23.468000 410.435000
64.439000 -23.455000 410.206000
64.880000 -23.444000 410.016000
65.327000 -23.436000 409.867000
65.771000 -23.426000 409.700000
66.219000 -23.418000 409.561000
66.663000 -23.409000 409.402000
67.103000 -23.399000 409.217000
67.559000 -23.394000 409.131000
68.007000 -23.386000 409.001000
68.471000 -23.384000 408.968000
68.918000 -23.377000 408.835000
69.379000 -23.374000 408.785000
69.841000 -23.371000 408.742000
70.294000 -23.366000 408.646000
70.762000 -23.365000 408.637000
71.213000 -23.359000 408.533000
71.683000 -23.360000 408.539000
72.136000 -23.355000 408.449000
72.619000 -23.359000 408.526000
73.075000 -23.355000 408.453000
73.562000 -23.361000 408.555000
74.019000 -23.357000 408.484000
74.525000 -23.368000 408.686000
74.980000 -23.364000 408.613000
75.498000 -23.379000 408.877000
75.963000 -23.378000 408.852000
76.480000 -23.392000 409.105000
76.946000 -23.391000 409.084000
77.457000 -23.403000 409.301000
77.935000 -23.406000 409.345000
78.446000 -23.418000 409.558000
78.942000 -23.426000 409.690000
79.466000 -23.442000 409.968000
79.958000 -23.448000 410.077000
80.490000 -23.466000 410.391000
81.021000 -23.483000 410.693000
81.544000 -23.498000 410.953000
82.089000 -23.519000 411.320000
82.630000 -23.538000 411.661000
83.169000 -23.557000 411.991000
83.733000 -23.583000 412.438000
84.298000 -23.608000 412.882000
84.856000 -23.632000 413.293000
85.446000 -23.664000 413.850000
86.024000 -23.692000 414.345000
86.659000 -23.736000 415.109000
58.053000 -23.256000 415.062000
58.463000 -23.230000 414.592000
58.887000 -23.209000 414.225000
59.291000 -23.181000 413.725000
59.716000 -23.162000 413.377000
60.144000 -23.144000 413.055000
60.563000 -23.123000 412.677000
60.978000 -23.101000 412.284000
61.429000 -23.092000 412.131000
61.844000 -23.070000 411.744000
62.277000 -23.056000 411.481000
62.713000 -23.042000 411.242000
63.149000 -23.029000 411.004000
63.580000 -23.014000 410.742000
64.016000 -23.001000 410.513000
64.452000 -22.989000 410.287000
64.895000 -22.979000 410.110000
65.346000 -22.972000 409.986000
65.785000 -22.961000 409.786000
66.238000 -22.954000 409.677000
66.679000 -22.945000 409.500000
67.122000 -22.935000 409.332000
67.577000 -22.930000 409.240000
68.027000 -22.923000 409.119000
68.485000 -22.920000 409.053000
68.937000 -22.913000 408.943000
69.400000 -22.911000 408.904000
69.857000 -22.907000 408.833000
70.311000 -22.902000 408.742000
70.781000 -22.903000 408.750000
71.228000 -22.895000 408.618000
71.703000 -22.897000 408.650000
72.151000 -22.890000 408.534000
72.644000 -22.898000 408.664000
73.095000 -22.892000 408.564000
73.587000 -22.899000 408.689000
74.038000 -22.894000 408.591000
74.546000 -22.906000 408.806000
75.002000 -22.902000 408.733000
75.516000 -22.915000 408.971000
75.984000 -22.914000 408.962000
76.502000 -22.929000 409.220000
76.974000 -22.930000 409.234000
77.478000 -22.940000 409.413000
77.957000 -22.942000 409.460000
78.471000 -22.955000 409.687000
78.964000 -22.962000 409.809000
79.491000 -22.978000 410.098000
79.987000 -22.985000 410.229000
80.520000 -23.003000 410.540000
81.058000 -23.022000 410.881000
81.561000 -23.031000 411.037000
82.108000 -23.052000 411.411000
82.657000 -23.073000 411.796000
83.195000 -23.091000 412.116000
83.751000 -23.114000 412.523000
84.321000 -23.140000 412.997000
84.887000 -23.166000 413.446000
85.482000 -23.198000 414.026000
86.069000 -23.228000 414.566000
86.705000 -23.271000 415.331000
87.326000 -23.310000 416.017000
58.479000 -22.760000 414.706000
58.903000 -22.740000 414.337000
59.312000 -22.714000 413.870000
59.740000 -22.696000 413.542000
60.160000 -22.676000 413.166000
60.577000 -22.654000 412.774000
60.997000 -22.634000 412.411000
61.441000 -22.623000 412.215000
61.864000 -22.605000 411.876000
62.300000 -22.592000 411.636000
62.729000 -22.576000 411.344000
63.165000 -22.563000 411.109000
63.597000 -22.549000 410.851000
64.036000 -22.537000 410.643000
64.471000 -22.524000 410.407000
64.918000 -22.516000 410.256000
65.365000 -22.507000 410.103000
65.803000 -22.496000 409.902000
66.249000 -22.488000 409.746000
66.694000 -22.479000 409.589000
67.146000 -22.473000 409.479000
67.597000 -22.467000 409.362000
68.048000 -22.460000 409.245000
68.503000 -22.456000 409.161000
68.952000 -22.449000 409.033000
69.420000 -22.448000 409.023000
69.870000 -22.442000 408.911000
70.327000 -22.438000 408.839000
70.794000 -22.437000 408.825000
71.245000 -22.431000 408.717000
71.725000 -22.435000 408.775000
72.175000 -22.429000 408.667000
72.665000 -22.435000 408.783000
73.114000 -22.429000 408.671000
73.610000 -22.437000 408.821000
74.060000 -22.431000 408.711000
74.567000 -22.443000 408.921000
75.017000 -22.437000 408.811000
75.544000 -22.454000 409.124000
76.006000 -22.451000 409.080000
76.521000 -22.465000 409.327000
76.997000 -22.466000 409.354000
77.504000 -22.477000 409.549000
77.983000 -22.480000 409.598000
78.500000 -22.493000 409.840000
78.993000 -22.499000 409.956000
79.519000 -22.515000 410.245000
80.021000 -22.524000 410.401000
80.550000 -22.540000 410.697000
81.075000 -22.555000 410.965000
81.587000 -22.566000 411.170000
82.130000 -22.585000 411.522000
82.677000 -22.606000 411.896000
83.225000 -22.626000 412.265000
83.778000 -22.648000 412.657000
84.352000 -22.675000 413.150000
84.930000 -22.702000 413.654000
85.529000 -22.735000 414.254000
86.116000 -22.765000 414.788000
86.746000 -22.805000 415.528000
87.344000 -22.837000 416.103000
58.926000 -22.273000 414.500000
59.335000 -22.248000 414.031000
59.763000 -22.230000 413.702000
60.176000 -22.207000 413.277000
60.598000 -22.188000 412.916000
61.025000 -22.171000 412.601000
61.463000 -22.158000 412.358000
61.884000 -22.139000 412.009000
62.324000 -22.127000 411.791000
62.749000 -22.111000 411.481000
63.180000 -22.096000 411.208000
63.618000 -22.084000 410.988000
64.060000 -22.074000 410.797000
64.497000 -22.062000 410.576000
64.940000 -22.052000 410.396000
65.386000 -22.044000 410.233000
65.821000 -22.032000 410.010000
66.269000 -22.024000 409.869000
66.708000 -22.014000 409.679000
67.167000 -22.010000 409.607000
67.617000 -22.003000 409.484000
68.067000 -21.997000 409.360000
68.522000 -21.992000 409.274000
68.973000 -21.986000 409.161000
69.434000 -21.983000 409.105000
69.886000 -21.978000 409.006000
70.349000 -21.976000 408.967000
70.814000 -21.974000 408.937000
71.266000 -21.968000 408.835000
71.745000 -21.972000 408.894000
72.198000 -21.966000 408.797000
72.689000 -21.973000 408.917000
73.139000 -21.967000 408.810000
73.634000 -21.975000 408.953000
74.080000 -21.968000 408.823000
74.592000 -21.980000 409.057000
75.039000 -21.974000 408.932000
75.558000 -21.988000 409.202000
76.027000 -21.988000 409.194000
76.538000 -22.000000 409.414000
77.013000 -22.001000 409.442000
77.521000 -22.012000 409.639000
78.005000 -22.015000 409.711000
78.519000 -22.028000 409.940000
79.014000 -22.035000 410.067000
79.541000 -22.050000 410.354000
80.050000 -22.060000 410.547000
80.569000 -22.073000 410.790000
81.105000 -22.091000 411.116000
81.626000 -22.104000 411.367000
82.162000 -22.121000 411.682000
82.708000 -22.141000 412.048000
83.252000 -22.160000 412.397000
83.806000 -22.181000 412.798000
84.391000 -22.210000 413.339000
84.977000 -22.240000 413.880000
85.561000 -22.268000 414.411000
86.151000 -22.297000 414.958000
86.793000 -22.340000 415.752000
58.949000 -21.805000 414.660000
59.356000 -21.780000 414.180000
59.791000 -21.765000 413.899000
60.202000 -21.742000 413.454000
60.617000 -21.720000 413.048000
61.051000 -21.706000 412.777000
61.482000 -21.691000 412.489000
61.903000 -21.673000 412.136000
62.347000 -21.662000 411.943000
62.768000 -21.645000 411.605000
63.199000 -21.630000 411.334000
63.635000 -21.618000 411.097000
64.081000 -21.609000 410.930000
64.518000 -21.598000 410.709000
64.963000 -21.589000 410.541000
65.403000 -21.578000 410.341000
65.842000 -21.568000 410.142000
66.290000 -21.560000 410.003000
66.730000 -21.550000 409.814000
67.192000 -21.548000 409.758000
67.633000 -21.538000 409.579000
68.090000 -21.534000 409.499000
68.541000 -21.528000 409.388000
68.997000 -21.524000 409.303000
69.456000 -21.520000 409.234000
69.917000 -21.517000 409.184000
70.369000 -21.512000 409.084000
70.832000 -21.510000 409.040000
71.294000 -21.508000 408.998000
71.773000 -21.510000 409.054000
72.223000 -21.504000 408.940000
72.713000 -21.511000 409.056000
73.165000 -21.505000 408.954000
73.664000 -21.514000 409.120000
74.109000 -21.507000 408.981000
74.622000 -21.519000 409.219000
75.072000 -21.513000 409.111000
75.585000 -21.526000 409.348000
76.054000 -21.525000 409.339000
76.566000 -21.537000 409.564000
77.041000 -21.539000 409.588000
77.548000 -21.549000 409.782000
78.035000 -21.553000 409.872000
78.554000 -21.567000 410.123000
79.046000 -21.572000 410.232000
79.570000 -21.587000 410.503000
80.090000 -21.600000 410.756000
80.604000 -21.611000 410.970000
81.139000 -21.628000 411.289000
81.665000 -21.642000 411.561000
82.199000 -21.658000 411.869000
82.753000 -21.680000 412.271000
83.301000 -21.699000 412.641000
83.859000 -21.721000 413.057000
84.439000 -21.748000 413.574000
85.011000 -21.773000 414.047000
85.612000 -21.805000 414.657000
86.203000 -21.834000 415.210000
86.863000 -21.880000 416.085000
109.922000 -26.245000 499.092000
58.974000 -21.338000 414.839000
59.383000 -21.314000 414.364000
59.823000 -21.301000 414.121000
60.228000 -21.276000 413.636000
60.652000 -21.259000 413.289000
61.083000 -21.243000 412.993000
61.509000 -21.227000 412.670000
61.931000 -21.209000 412.324000
62.373000 -21.198000 412.113000
62.794000 -21.181000 411.774000
