109.832000 46.809000 534.940000
110.616000 46.881000 535.763000
111.378000 46.942000 536.469000
112.122000 46.996000 537.082000
112.891000 47.059000 537.804000
113.627000 47.109000 538.370000
114.402000 47.173000 539.107000
115.140000 47.222000 539.665000
115.950000 47.300000 540.552000
116.753000 47.374000 541.396000
117.950000 47.606000 544.050000
118.614000 47.622000 544.230000
119.297000 47.645000 544.495000
119.903000 47.637000 544.408000
120.601000 47.666000 544.737000
9.587000 41.569000 468.905000
10.117000 41.534000 468.508000
10.644000 41.492000 468.040000
11.175000 41.466000 467.743000
11.699000 41.420000 467.222000
12.228000 41.395000 466.948000
12.754000 41.361000 466.562000
13.281000 41.336000 466.278000
13.808000 41.309000 465.973000
14.335000 41.286000 465.717000
14.858000 41.253000 465.346000
15.390000 41.246000 465.266000
15.911000 41.213000 464.893000
16.443000 41.208000 464.837000
16.968000 41.187000 464.595000
17.497000 41.177000 464.486000
18.023000 41.161000 464.302000
18.553000 41.154000 464.222000
19.079000 41.138000 464.042000
19.610000 41.134000 464.003000
20.135000 41.118000 463.824000
20.671000 41.125000 463.902000
21.199000 41.117000 463.802000
21.737000 41.125000 463.903000
22.267000 41.121000 463.853000
22.802000 41.126000 463.907000
23.332000 41.120000 463.840000
23.854000 41.102000 463.639000
24.378000 41.089000 463.487000
24.906000 41.081000 463.404000
25.445000 41.092000 463.529000
25.976000 41.091000 463.515000
26.523000 41.113000 463.764000
27.065000 41.127000 463.919000
27.618000 41.158000 464.267000
28.165000 41.178000 464.497000
28.712000 41.197000 464.712000
29.254000 41.209000 464.844000
29.798000 41.224000 465.017000
30.338000 41.232000 465.102000
30.894000 41.262000 465.441000
31.442000 41.280000 465.642000
31.999000 41.308000 465.960000
32.557000 41.337000 466.291000
33.114000 41.364000 466.598000
33.675000 41.395000 466.943000
34.237000 41.426000 467.293000
34.804000 41.462000 467.699000
35.379000 41.506000 468.201000
35.956000 41.552000 468.714000
36.542000 41.607000 469.339000
37.118000 41.649000 469.808000
37.716000 41.714000 470.539000
38.320000 41.782000 471.311000
38.936000 41.863000 472.218000
39.559000 41.949000 473.194000
40.185000 42.035000 474.160000
45.002000 42.996000 485.004000
45.595000 43.030000 485.386000
46.160000 43.037000 485.468000
46.744000 43.061000 485.740000
47.315000 43.074000 485.885000
47.893000 43.092000 486.089000
48.469000 43.108000 486.262000
49.053000 43.130000 486.516000
49.632000 43.148000 486.720000
50.212000 43.166000 486.918000
50.791000 43.183000 487.109000
51.374000 43.203000 487.334000
51.967000 43.231000 487.652000
52.545000 43.246000 487.821000
53.146000 43.279000 488.190000
53.717000 43.287000 488.284000
54.309000 43.312000 488.570000
54.877000 43.318000 488.637000
55.470000 43.342000 488.909000
56.051000 43.358000 489.086000
56.644000 43.382000 489.359000
57.221000 43.394000 489.488000
57.822000 43.422000 489.812000
58.401000 43.435000 489.958000
59.001000 43.463000 490.269000
76.987000 45.094000 508.672000
77.598000 45.110000 508.853000
78.129000 45.079000 508.501000
78.723000 45.085000 508.567000
79.281000 45.070000 508.403000
79.893000 45.086000 508.581000
80.490000 45.093000 508.662000
81.146000 45.133000 509.114000
81.794000 45.169000 509.513000
82.501000 45.236000 510.267000
83.147000 45.268000 510.635000
83.889000 45.352000 511.582000
84.551000 45.392000 512.033000
85.225000 45.438000 512.550000
85.918000 45.494000 513.176000
86.611000 45.548000 513.791000
87.284000 45.591000 514.279000
87.971000 45.642000 514.845000
88.678000 45.701000 515.519000
89.381000 45.758000 516.162000
90.127000 45.836000 517.039000
90.790000 45.871000 517.435000
91.545000 45.952000 518.344000
92.220000 45.991000 518.791000
92.925000 46.046000 519.403000
93.580000 46.074000 519.729000
94.362000 46.165000 520.754000
94.992000 46.181000 520.927000
95.747000 46.256000 521.781000
96.446000 46.305000 522.325000
97.274000 46.413000 523.552000
97.873000 46.412000 523.540000
98.715000 46.526000 524.822000
99.363000 46.547000 525.058000
100.151000 46.633000 526.032000
100.764000 46.637000 526.079000
101.595000 46.742000 527.256000
102.221000 46.751000 527.363000
103.035000 46.846000 528.433000
103.725000 46.883000 528.854000
104.546000 46.980000 529.941000
105.207000 47.003000 530.203000
106.030000 47.098000 531.277000
106.717000 47.132000 531.658000
107.462000 47.191000 532.328000
108.163000 47.230000 532.768000
108.939000 47.302000 533.574000
109.668000 47.352000 534.140000
110.437000 47.419000 534.894000
111.219000 47.490000 535.701000
111.970000 47.548000 536.353000
112.731000 47.610000 537.045000
113.476000 47.663000 537.652000
114.252000 47.730000 538.399000
114.958000 47.766000 538.811000
115.748000 47.837000 539.609000
116.554000 47.914000 540.476000
118.084000 48.285000 544.668000
118.776000 48.313000 544.976000
119.435000 48.326000 545.127000
120.027000 48.312000 544.973000
9.588000 42.110000 468.937000
10.118000 42.077000 468.568000
10.645000 42.030000 468.044000
11.174000 41.999000 467.703000
11.699000 41.955000 467.212000
12.227000 41.929000 466.923000
12.754000 41.897000 466.563000
13.282000 41.872000 466.286000
13.807000 41.842000 465.950000
14.335000 41.820000 465.710000
14.857000 41.786000 465.332000
15.389000 41.779000 465.245000
15.910000 41.745000 464.876000
16.442000 41.739000 464.806000
16.968000 41.721000 464.601000
17.497000 41.709000 464.475000
18.023000 41.693000 464.295000
18.551000 41.682000 464.170000
19.078000 41.669000 464.024000
19.610000 41.666000 463.995000
20.134000 41.648000 463.791000
20.671000 41.658000 463.902000
21.199000 41.649000 463.799000
21.735000 41.654000 463.856000
22.265000 41.650000 463.811000
22.800000 41.654000 463.857000
23.329000 41.647000 463.783000
23.855000 41.637000 463.669000
24.382000 41.627000 463.553000
24.907000 41.615000 463.424000
25.446000 41.626000 463.541000
25.980000 41.629000 463.580000
26.527000 41.652000 463.837000
27.065000 41.660000 463.926000
27.614000 41.685000 464.203000
28.161000 41.705000 464.425000
28.708000 41.725000 464.649000
29.249000 41.736000 464.776000
29.796000 41.754000 464.974000
30.337000 41.764000 465.085000
30.891000 41.792000 465.390000
31.440000 41.811000 465.607000
31.998000 41.841000 465.942000
32.555000 41.870000 466.265000
33.114000 41.900000 466.591000
33.677000 41.934000 466.973000
34.239000 41.965000 467.320000
34.807000 42.003000 467.743000
35.383000 42.049000 468.257000
35.956000 42.090000 468.718000
36.546000 42.150000 469.381000
37.123000 42.193000 469.865000
37.718000 42.256000 470.564000
38.318000 42.321000 471.289000
38.934000 42.403000 472.202000
44.969000 43.521000 484.648000
45.550000 43.545000 484.913000
46.122000 43.558000 485.066000
46.703000 43.581000 485.321000
47.273000 43.593000 485.451000
47.852000 43.613000 485.673000
48.424000 43.626000 485.813000
49.005000 43.646000 486.040000
49.582000 43.663000 486.226000
50.167000 43.686000 486.486000
50.743000 43.701000 486.654000
51.328000 43.723000 486.900000
51.897000 43.732000 486.996000
52.493000 43.762000 487.333000
53.087000 43.791000 487.649000
53.663000 43.804000 487.796000
54.249000 43.825000 488.029000
54.822000 43.835000 488.146000
55.414000 43.860000 488.418000
55.984000 43.867000 488.501000
56.575000 43.890000 488.756000
57.160000 43.908000 488.959000
57.758000 43.936000 489.274000
58.341000 43.952000 489.452000
58.938000 43.979000 489.745000
77.767000 45.794000 509.958000
78.319000 45.774000 509.737000
78.893000 45.768000 509.666000
79.470000 45.763000 509.612000
80.044000 45.757000 509.544000
80.636000 45.761000 509.588000
81.239000 45.771000 509.699000
81.794000 45.754000 509.512000
82.424000 45.779000 509.789000
83.033000 45.792000 509.935000
83.751000 45.864000 510.738000
84.416000 45.907000 511.217000
85.114000 45.967000 511.884000
85.775000 46.006000 512.322000
86.482000 46.069000 513.025000
87.179000 46.127000 513.663000
87.837000 46.162000 514.063000
88.533000 46.217000 514.673000
89.239000 46.277000 515.341000
89.955000 46.341000 516.054000
90.638000 46.387000 516.568000
91.399000 46.473000 517.518000
92.086000 46.520000 518.040000
92.790000 46.574000 518.648000
93.464000 46.614000 519.087000
94.255000 46.710000 520.162000
94.847000 46.708000 520.134000
95.616000 46.791000 521.068000
96.268000 46.817000 521.357000
97.082000 46.922000 522.518000
97.715000 46.937000 522.694000
98.551000 47.050000 523.947000
99.197000 47.071000 524.183000
100.017000 47.174000 525.326000
100.652000 47.189000 525.493000
101.462000 47.285000 526.567000
102.087000 47.294000 526.669000
102.886000 47.384000 527.669000
103.547000 47.409000 527.947000
104.367000 47.506000 529.030000
105.033000 47.533000 529.329000
105.837000 47.621000 530.308000
106.552000 47.669000 530.840000
107.325000 47.742000 531.649000
108.037000 47.786000 532.147000
108.791000 47.849000 532.846000
109.523000 47.902000 533.435000
110.279000 47.964000 534.128000
111.028000 48.023000 534.781000
111.806000 48.093000 535.566000
112.573000 48.159000 536.293000
113.312000 48.211000 536.874000
114.106000 48.286000 537.713000
114.812000 48.324000 538.129000
115.588000 48.390000 538.866000
116.399000 48.470000 539.756000
118.090000 48.913000 544.698000
118.940000 49.006000 545.728000
119.572000 49.008000 545.749000
10.119000 42.616000 468.579000
10.645000 42.568000 468.047000
11.173000 42.535000 467.686000
11.700000 42.495000 467.251000
12.227000 42.465000 466.919000
12.754000 42.432000 466.553000
13.281000 42.404000 466.251000
13.807000 42.378000 465.959000
14.334000 42.354000 465.697000
14.858000 42.322000 465.346000
15.388000 42.311000 465.225000
15.911000 42.281000 464.898000
16.442000 42.273000 464.803000
16.968000 42.255000 464.612000
17.497000 42.243000 464.482000
18.023000 42.227000 464.303000
18.551000 42.215000 464.170000
19.077000 42.198000 463.986000
19.611000 42.201000 464.014000
20.134000 42.181000 463.800000
20.673000 42.195000 463.949000
21.200000 42.182000 463.808000
21.734000 42.185000 463.841000
22.262000 42.177000 463.755000
22.797000 42.181000 463.799000
23.327000 42.177000 463.752000
23.856000 42.170000 463.674000
24.386000 42.166000 463.628000
24.911000 42.155000 463.506000
25.450000 42.166000 463.628000
25.984000 42.168000 463.652000
26.533000 42.194000 463.937000
27.068000 42.198000 463.984000
27.616000 42.221000 464.232000
28.158000 42.235000 464.389000
28.701000 42.249000 464.544000
29.245000 42.265000 464.714000
29.793000 42.285000 464.938000
30.337000 42.298000 465.084000
30.892000 42.328000 465.409000
31.442000 42.349000 465.637000
31.994000 42.372000 465.892000
32.554000 42.404000 466.244000
33.112000 42.433000 466.566000
33.678000 42.471000 466.986000
34.240000 42.504000 467.343000
34.811000 42.544000 467.792000
35.384000 42.588000 468.266000
35.954000 42.626000 468.688000
36.546000 42.689000 469.386000
37.129000 42.740000 469.938000
37.724000 42.803000 470.629000
38.322000 42.868000 471.346000
38.939000 42.951000 472.258000
43.231000 44.008000 483.883000
43.796000 44.017000 483.982000
44.362000 44.028000 484.099000
44.943000 44.052000 484.366000
45.516000 44.068000 484.549000
46.088000 44.083000 484.708000
46.662000 44.100000 484.896000
47.239000 44.118000 485.096000
47.819000 44.140000 485.330000
48.390000 44.152000 485.471000
48.963000 44.167000 485.627000
49.544000 44.187000 485.856000
50.124000 44.207000 486.070000
50.705000 44.227000 486.290000
51.286000 44.246000 486.502000
51.858000 44.258000 486.632000
52.451000 44.287000 486.950000
53.031000 44.304000 487.133000
53.607000 44.318000 487.289000
54.193000 44.340000 487.529000
54.776000 44.358000 487.731000
55.361000 44.378000 487.955000
55.936000 44.390000 488.081000
56.523000 44.410000 488.308000
57.098000 44.422000 488.434000
57.698000 44.452000 488.768000
58.285000 44.472000 488.983000
58.879000 44.496000 489.254000
80.789000 46.434000 510.554000
81.379000 46.436000 510.579000
81.913000 46.406000 510.254000
82.544000 46.431000 510.530000
83.077000 46.402000 510.202000
83.727000 46.437000 510.596000
84.345000 46.455000 510.785000
85.034000 46.511000 511.402000
85.697000 46.552000 511.856000
86.379000 46.603000 512.417000
87.094000 46.671000 513.163000
87.775000 46.719000 513.697000
88.452000 46.766000 514.206000
89.123000 46.808000 514.672000
89.839000 46.873000 515.386000
90.520000 46.919000 515.895000
91.261000 46.996000 516.735000
91.929000 47.034000 517.155000
92.699000 47.124000 518.142000
93.374000 47.164000 518.585000
94.121000 47.240000 519.423000
94.765000 47.264000 519.685000
95.540000 47.352000 520.656000
96.131000 47.349000 520.617000
96.936000 47.450000 521.733000
97.601000 47.482000 522.083000
98.394000 47.576000 523.116000
99.015000 47.585000 523.219000
99.871000 47.708000 524.564000
100.520000 47.730000 524.805000
101.316000 47.821000 525.811000
101.964000 47.842000 526.038000
102.766000 47.934000 527.053000
103.408000 47.951000 527.239000
104.193000 48.034000 528.151000
104.889000 48.075000 528.601000
105.676000 48.157000 529.505000
106.380000 48.201000 529.982000
107.181000 48.287000 530.937000
107.894000 48.333000 531.443000
108.650000 48.399000 532.159000
109.386000 48.454000 532.766000
110.138000 48.516000 533.446000
110.868000 48.567000 534.012000
111.618000 48.627000 534.668000
112.398000 48.699000 535.460000
113.125000 48.747000 535.991000
113.924000 48.826000 536.855000
114.662000 48.878000 537.426000
10.120000 43.159000 468.633000
10.646000 43.109000 468.092000
11.175000 43.079000 467.763000
11.699000 43.031000 467.239000
12.229000 43.007000 466.980000
12.754000 42.969000 466.571000
13.281000 42.941000 466.267000
13.808000 42.914000 465.967000
14.335000 42.889000 465.702000
14.859000 42.859000 465.371000
15.390000 42.850000 465.276000
15.913000 42.819000 464.935000
16.443000 42.810000 464.843000
16.968000 42.787000 464.590000
17.497000 42.778000 464.492000
18.023000 42.759000 464.293000
18.553000 42.752000 464.217000
19.077000 42.733000 464.004000
19.609000 42.729000 463.967000
20.135000 42.715000 463.812000
20.672000 42.726000 463.927000
21.199000 42.713000 463.791000
21.733000 42.716000 463.821000
22.259000 42.703000 463.685000
22.795000 42.710000 463.754000
23.326000 42.707000 463.726000
23.857000 42.705000 463.702000
24.388000 42.702000 463.666000
24.916000 42.695000 463.598000
25.456000 42.707000 463.726000
25.989000 42.708000 463.737000
26.534000 42.729000 463.959000
27.073000 42.738000 464.065000
27.617000 42.756000 464.256000
28.160000 42.771000 464.421000
28.702000 42.783000 464.551000
29.242000 42.794000 464.666000
29.795000 42.821000 464.963000
30.338000 42.834000 465.103000
30.894000 42.865000 465.437000
31.445000 42.887000 465.682000
31.996000 42.909000 465.913000
32.556000 42.942000 466.280000
33.115000 42.973000 466.610000
33.675000 43.004000 466.945000
34.237000 43.036000 467.297000
34.810000 43.080000 467.779000
35.381000 43.123000 468.237000
35.952000 43.162000 468.669000
36.547000 43.230000 469.402000
37.134000 43.285000 470.004000
37.723000 43.342000 470.621000
38.324000 43.411000 471.367000
38.938000 43.492000 472.246000
43.198000 44.530000 483.514000
43.768000 44.544000 483.673000
44.337000 44.559000 483.830000
44.915000 44.581000 484.069000
45.477000 44.586000 484.132000
46.058000 44.611000 484.397000
46.631000 44.627000 484.567000
47.206000 44.645000 484.764000
47.782000 44.662000 484.955000
48.351000 44.674000 485.079000
48.929000 44.693000 485.288000
49.512000 44.716000 485.539000
50.087000 44.732000 485.715000
50.667000 44.752000 485.927000
51.242000 44.766000 486.083000
51.822000 44.786000 486.293000
52.411000 44.811000 486.574000
52.976000 44.816000 486.628000
53.565000 44.842000 486.906000
54.140000 44.855000 487.046000
54.724000 44.875000 487.266000
55.311000 44.898000 487.513000
55.893000 44.916000 487.707000
56.472000 44.930000 487.867000
57.053000 44.947000 488.048000
57.644000 44.971000 488.304000
58.223000 44.985000 488.463000
58.813000 45.007000 488.700000
81.471000 47.075000 511.152000
82.063000 47.078000 511.184000
82.663000 47.086000 511.267000
83.234000 47.076000 511.165000
83.873000 47.106000 511.486000
84.460000 47.105000 511.484000
85.060000 47.112000 511.559000
85.646000 47.112000 511.552000
86.279000 47.137000 511.822000
86.949000 47.181000 512.307000
87.645000 47.239000 512.936000
88.351000 47.302000 513.619000
88.986000 47.326000 513.876000
89.706000 47.395000 514.626000
90.394000 47.445000 515.175000
91.096000 47.503000 515.804000
91.756000 47.538000 516.185000
92.552000 47.643000 517.318000
93.199000 47.670000 517.613000
93.957000 47.753000 518.519000
94.643000 47.799000 519.016000
95.438000 47.899000 520.099000
96.028000 47.895000 520.059000
96.810000 47.987000 521.052000
97.447000 48.006000 521.262000
98.237000 48.100000 522.281000
98.867000 48.115000 522.441000
99.703000 48.228000 523.677000
100.335000 48.243000 523.841000
101.157000 48.349000 524.983000
101.831000 48.382000 525.349000
102.630000 48.475000 526.353000
103.290000 48.501000 526.640000
104.061000 48.579000 527.479000
104.732000 48.609000 527.811000
105.525000 48.695000 528.749000
106.221000 48.736000 529.192000
107.012000 48.820000 530.100000
107.728000 48.868000 530.626000
108.503000 48.943000 531.440000
109.241000 49.000000 532.059000
109.993000 49.063000 532.745000
110.729000 49.119000 533.342000
111.439000 49.162000 533.811000
112.209000 49.231000 534.558000
112.961000 49.291000 535.213000
113.753000 49.368000 536.047000
114.477000 49.414000 536.555000
10.122000 43.708000 468.750000
10.648000 43.658000 468.216000
11.177000 43.622000 467.829000
11.701000 43.574000 467.317000
12.231000 43.550000 467.060000
12.756000 43.513000 466.662000
13.283000 43.483000 466.334000
13.809000 43.453000 466.018000
14.337000 43.431000 465.778000
14.861000 43.399000 465.432000
15.392000 43.389000 465.331000
15.914000 43.357000 464.980000
16.444000 43.345000 464.858000
16.968000 43.320000 464.592000
17.498000 43.313000 464.517000
18.025000 43.297000 464.337000
18.554000 43.286000 464.226000
19.078000 43.268000 464.029000
19.610000 43.265000 464.000000
20.137000 43.253000 463.864000
20.672000 43.258000 463.925000
21.196000 43.239000 463.717000
21.733000 43.249000 463.823000
22.260000 43.237000 463.697000
22.793000 43.240000 463.727000
23.327000 43.242000 463.748000
23.859000 43.242000 463.746000
24.392000 43.242000 463.746000
24.919000 43.233000 463.653000
25.461000 43.249000 463.828000
25.993000 43.247000 463.806000
26.537000 43.267000 464.018000
27.074000 43.272000 464.076000
27.620000 43.293000 464.295000
28.162000 43.306000 464.442000
28.704000 43.320000 464.590000
29.245000 43.332000 464.713000
29.795000 43.355000 464.963000
30.339000 43.370000 465.125000
30.899000 43.406000 465.509000
31.450000 43.429000 465.756000
31.998000 43.447000 465.951000
32.557000 43.479000 466.288000
33.116000 43.509000 466.620000
33.679000 43.545000 466.999000
34.243000 43.580000 467.375000
34.814000 43.623000 467.833000
35.387000 43.667000 468.313000
35.958000 43.707000 468.741000
36.551000 43.774000 469.451000
37.143000 43.836000 470.125000
37.729000 43.889000 470.692000
38.334000 43.964000 471.494000
38.952000 44.050000 472.417000
39.574000 44.139000 473.367000
40.225000 44.257000 474.640000
40.843000 44.336000 475.486000
42.642000 45.084000 483.503000
43.175000 45.060000 483.253000
43.744000 45.075000 483.411000
44.312000 45.089000 483.556000
44.890000 45.111000 483.794000
45.450000 45.116000 483.846000
46.039000 45.148000 484.195000
46.603000 45.156000 484.281000
47.181000 45.177000 484.506000
47.747000 45.186000 484.601000
48.321000 45.203000 484.782000
48.898000 45.222000 484.983000
49.482000 45.247000 485.250000
50.055000 45.260000 485.397000
50.632000 45.279000 485.592000
51.203000 45.290000 485.713000
51.788000 45.314000 485.971000
52.363000 45.328000 486.128000
52.946000 45.349000 486.352000
53.536000 45.376000 486.640000
54.104000 45.384000 486.727000
54.688000 45.405000 486.946000
55.272000 45.426000 487.171000
55.853000 45.443000 487.357000
56.439000 45.464000 487.585000
57.012000 45.475000 487.698000
57.590000 45.489000 487.852000
58.168000 45.503000 488.002000
58.763000 45.530000 488.287000
81.457000 47.654000 511.066000
82.057000 47.661000 511.146000
82.750000 47.723000 511.807000
83.379000 47.746000 512.060000
84.014000 47.773000 512.345000
84.583000 47.762000 512.226000
85.174000 47.764000 512.246000
85.777000 47.772000 512.332000
86.354000 47.766000 512.269000
86.949000 47.770000 512.308000
87.589000 47.798000 512.612000
88.271000 47.849000 513.155000
88.921000 47.881000 513.505000
89.627000 47.943000 514.170000
90.282000 47.978000 514.540000
91.014000 48.052000 515.340000
91.673000 48.087000 515.715000
92.408000 48.162000 516.517000
93.044000 48.184000 516.751000
93.841000 48.289000 517.877000
94.508000 48.326000 518.275000
95.279000 48.415000 519.232000
95.930000 48.443000 519.530000
96.736000 48.548000 520.656000
97.318000 48.540000 520.569000
98.125000 48.644000 521.682000
98.778000 48.670000 521.969000
99.543000 48.751000 522.837000
100.180000 48.769000 523.031000
101.015000 48.883000 524.246000
101.669000 48.908000 524.513000
102.471000 49.003000 525.538000
103.155000 49.042000 525.949000
103.946000 49.130000 526.897000
104.607000 49.156000 527.179000
105.384000 49.237000 528.041000
106.091000 49.283000 528.543000
106.845000 49.351000 529.270000
107.554000 49.398000 529.770000
108.350000 49.484000 530.690000
109.076000 49.537000 531.259000
109.831000 49.602000 531.957000
110.581000 49.664000 532.629000
111.304000 49.714000 533.163000
112.054000 49.775000 533.818000
112.793000 49.831000 534.414000
113.575000 49.905000 535.212000
114.302000 49.954000 535.735000
10.123000 44.251000 468.802000
10.648000 44.196000 468.216000
11.178000 44.163000 467.872000
11.702000 44.116000 467.364000
12.232000 44.092000 467.112000
12.758000 44.055000 466.718000
13.284000 44.020000 466.353000
13.810000 43.991000 466.049000
14.337000 43.965000 465.768000
14.861000 43.935000 465.450000
15.393000 43.927000 465.363000
15.917000 43.898000 465.055000
16.445000 43.883000 464.903000
16.971000 43.862000 464.680000
17.499000 43.849000 464.545000
18.026000 43.833000 464.373000
18.555000 43.823000 464.265000
19.081000 43.808000 464.102000
19.614000 43.806000 464.084000
20.138000 43.787000 463.878000
20.674000 43.795000 463.964000
21.197000 43.774000 463.750000
21.733000 43.781000 463.822000
22.261000 43.773000 463.737000
22.797000 43.779000 463.794000
23.327000 43.775000 463.759000
23.862000 43.779000 463.797000
24.395000 43.779000 463.798000
24.924000 43.774000 463.741000
25.464000 43.787000 463.880000
25.998000 43.788000 463.895000
26.541000 43.805000 464.074000
27.077000 43.811000 464.140000
27.620000 43.826000 464.298000
28.161000 43.840000 464.440000
28.707000 43.858000 464.631000
29.249000 43.871000 464.772000
29.798000 43.894000 465.017000
30.344000 43.911000 465.195000
30.899000 43.941000 465.515000
31.450000 43.963000 465.753000
31.999000 43.983000 465.964000
32.562000 44.021000 466.357000
33.121000 44.051000 466.685000
33.684000 44.087000 467.065000
34.249000 44.124000 467.453000
34.819000 44.167000 467.908000
35.394000 44.214000 468.403000
35.964000 44.254000 468.829000
36.560000 44.323000 469.567000
37.149000 44.383000 470.201000
37.739000 44.441000 470.816000
38.347000 44.520000 471.651000
38.968000 44.611000 472.615000
39.593000 44.704000 473.593000
40.236000 44.815000 474.771000
40.837000 44.876000 475.416000
42.624000 45.620000 483.300000
43.154000 45.594000 483.023000
43.719000 45.604000 483.137000
44.290000 45.621000 483.308000
44.866000 45.643000 483.541000
45.429000 45.650000 483.620000
46.023000 45.688000 484.027000
46.577000 45.687000 484.012000
47.153000 45.706000 484.214000
47.723000 45.719000 484.356000
48.298000 45.738000 484.548000
48.871000 45.753000 484.712000
49.452000 45.775000 484.948000
50.022000 45.788000 485.084000
50.601000 45.808000 485.293000
51.169000 45.817000 485.392000
51.754000 45.842000 485.655000
52.328000 45.857000 485.808000
52.926000 45.891000 486.174000
53.519000 45.920000 486.484000
54.094000 45.935000 486.639000
54.702000 45.976000 487.070000
55.285000 45.996000 487.285000
55.843000 45.994000 487.267000
56.404000 45.996000 487.284000
56.971000 46.002000 487.345000
57.543000 46.012000 487.455000
58.125000 46.030000 487.642000
58.706000 46.046000 487.813000
59.294000 46.067000 488.039000
59.883000 46.090000 488.278000
60.509000 46.139000 488.802000
61.219000 46.252000 489.995000
61.772000 46.244000 489.916000
84.634000 48.379000 512.536000
85.297000 48.422000 512.986000
85.945000 48.455000 513.336000
86.540000 48.458000 513.367000
87.149000 48.469000 513.483000
87.755000 48.478000 513.580000
88.328000 48.469000 513.484000
88.915000 48.468000 513.470000
89.565000 48.500000 513.814000
90.154000 48.500000 513.811000
90.904000 48.585000 514.714000
91.570000 48.625000 515.137000
92.264000 48.679000 515.709000
92.911000 48.708000 516.014000
93.708000 48.814000 517.145000
94.307000 48.817000 517.170000
95.103000 48.921000 518.271000
95.785000 48.965000 518.744000
96.598000 49.076000 519.912000
97.202000 49.079000 519.951000
97.999000 49.179000 521.012000
98.640000 49.201000 521.239000
99.420000 49.291000 522.194000
100.042000 49.302000 522.311000
100.866000 49.412000 523.471000
101.492000 49.424000 523.603000
102.301000 49.524000 524.666000
102.981000 49.562000 525.061000
103.787000 49.659000 526.093000
104.470000 49.697000 526.492000
105.242000 49.776000 527.329000
105.941000 49.820000 527.795000
106.702000 49.892000 528.562000
107.410000 49.939000 529.062000
108.170000 50.010000 529.809000
108.901000 50.066000 530.402000
109.651000 50.131000 531.089000
110.416000 50.201000 531.834000
111.160000 50.261000 532.473000
111.926000 50.331000 533.208000
112.656000 50.383000 533.765000
113.425000 50.453000 534.503000
114.142000 50.499000 534.987000
10.125000 44.798000 468.887000
10.651000 44.745000 468.337000
11.180000 44.711000 467.979000
11.703000 44.656000 467.404000
12.235000 44.639000 467.226000
12.760000 44.597000 466.785000
13.285000 44.560000 466.403000
13.813000 44.537000 466.163000
14.339000 44.507000 465.846000
14.864000 44.479000 465.548000
15.396000 44.470000 465.454000
15.919000 44.439000 465.136000
16.448000 44.423000 464.968000
16.973000 44.402000 464.749000
17.502000 44.389000 464.609000
18.028000 44.371000 464.416000
18.558000 44.363000 464.332000
19.083000 44.345000 464.151000
19.618000 44.348000 464.176000
20.140000 44.325000 463.944000
20.676000 44.331000 464.004000
21.201000 44.315000 463.830000
21.734000 44.317000 463.852000
22.262000 44.306000 463.739000
22.800000 44.317000 463.854000
23.330000 44.312000 463.801000
23.862000 44.311000 463.792000
24.397000 44.317000 463.851000
24.929000 44.315000 463.830000
25.468000 44.326000 463.949000
26.000000 44.324000 463.928000
26.544000 44.344000 464.136000
27.081000 44.350000 464.202000
27.623000 44.365000 464.357000
28.166000 44.379000 464.510000
28.709000 44.396000 464.678000
29.254000 44.412000 464.849000
29.803000 44.435000 465.087000
30.347000 44.449000 465.239000
30.902000 44.479000 465.548000
31.455000 44.505000 465.823000
32.005000 44.526000 466.044000
32.567000 44.563000 466.430000
33.125000 44.593000 466.746000
33.688000 44.630000 467.129000
34.254000 44.668000 467.527000
34.826000 44.713000 467.997000
35.404000 44.765000 468.544000
35.976000 44.807000 468.982000
36.568000 44.873000 469.671000
37.158000 44.934000 470.309000
37.746000 44.991000 470.911000
38.358000 45.075000 471.787000
43.704000 46.143000 482.968000
44.276000 46.161000 483.155000
44.848000 46.179000 483.344000
45.416000 46.192000 483.480000
45.996000 46.217000 483.739000
46.557000 46.223000 483.803000
47.133000 46.243000 484.017000
47.703000 46.256000 484.151000
48.279000 46.275000 484.355000
48.847000 46.287000 484.473000
49.421000 46.304000 484.648000
49.996000 46.320000 484.824000
50.575000 46.341000 485.039000
51.141000 46.349000 485.123000
51.726000 46.375000 485.391000
52.296000 46.385000 485.505000
52.922000 46.445000 486.132000
53.514000 46.475000 486.443000
54.139000 46.532000 487.037000
54.753000 46.579000 487.529000
55.337000 46.599000 487.739000
55.880000 46.585000 487.591000
56.416000 46.565000 487.387000
56.936000 46.533000 487.051000
57.503000 46.539000 487.114000
58.078000 46.552000 487.244000
58.667000 46.575000 487.488000
59.245000 46.589000 487.639000
59.842000 46.619000 487.945000
60.466000 46.668000 488.458000
61.162000 46.770000 489.534000
61.700000 46.752000 489.346000
85.986000 49.068000 513.582000
86.661000 49.116000 514.090000
87.284000 49.135000 514.281000
87.884000 49.140000 514.334000
88.463000 49.133000 514.268000
89.050000 49.132000 514.249000
89.663000 49.144000 514.379000
90.225000 49.128000 514.212000
90.895000 49.171000 514.661000
91.509000 49.184000 514.796000
92.211000 49.243000 515.411000
92.844000 49.265000 515.644000
93.581000 49.341000 516.444000
94.206000 49.358000 516.619000
94.989000 49.457000 517.651000
95.610000 49.470000 517.796000
96.421000 49.582000 518.958000
97.087000 49.618000 519.337000
97.892000 49.724000 520.446000
98.487000 49.722000 520.433000
99.315000 49.838000 521.640000
99.956000 49.859000 521.862000
100.725000 49.943000 522.742000
101.371000 49.966000 522.977000
102.169000 50.062000 523.991000
102.815000 50.084000 524.216000
103.613000 50.179000 525.208000
104.322000 50.230000 525.745000
105.099000 50.313000 526.611000
105.786000 50.352000 527.022000
106.567000 50.435000 527.895000
107.268000 50.480000 528.361000
107.992000 50.535000 528.936000
108.733000 50.597000 529.587000
109.497000 50.669000 530.340000
110.237000 50.729000 530.970000
110.984000 50.792000 531.628000
111.772000 50.873000 532.475000
112.495000 50.924000 533.006000
113.277000 51.000000 533.805000
113.996000 51.048000 534.303000
114.773000 51.120000 535.062000
115.463000 51.154000 535.413000
10.126000 45.341000 468.935000
10.653000 45.290000 468.415000
11.182000 45.253000 468.027000
11.706000 45.202000 467.500000
12.236000 45.179000 467.267000
12.760000 45.135000 466.806000
13.289000 45.109000 466.543000
13.815000 45.078000 466.215000
14.342000 45.052000 465.947000
14.867000 45.022000 465.639000
15.397000 45.007000 465.487000
15.919000 44.973000 465.132000
16.451000 44.966000 465.054000
16.975000 44.939000 464.784000
17.504000 44.928000 464.666000
18.030000 44.910000 464.485000
18.560000 44.902000 464.400000
19.088000 44.889000 464.258000
19.619000 44.884000 464.210000
20.144000 44.866000 464.029000
20.678000 44.868000 464.043000
21.202000 44.850000 463.862000
21.738000 44.856000 463.920000
22.264000 44.844000 463.792000
22.799000 44.849000 463.845000
23.332000 44.849000 463.844000
23.866000 44.851000 463.871000
24.400000 44.854000 463.898000
24.935000 44.858000 463.942000
25.472000 44.866000 464.030000
26.005000 44.866000 464.023000
26.546000 44.879000 464.160000
27.087000 44.893000 464.304000
27.629000 44.908000 464.458000
28.173000 44.924000 464.622000
28.716000 44.939000 464.776000
29.257000 44.951000 464.901000
29.806000 44.974000 465.143000
30.354000 44.994000 465.345000
30.907000 45.022000 465.635000
31.463000 45.052000 465.951000
32.012000 45.072000 466.154000
32.576000 45.112000 466.565000
33.133000 45.140000 466.861000
33.697000 45.178000 467.249000
34.259000 45.211000 467.596000
34.833000 45.260000 468.099000
35.410000 45.310000 468.619000
35.980000 45.351000 469.039000
36.570000 45.414000 469.698000
37.165000 45.483000 470.403000
37.761000 45.550000 471.099000
38.368000 45.629000 471.912000
43.697000 46.690000 482.886000
44.262000 46.701000 483.006000
44.831000 46.717000 483.166000
45.394000 46.725000 483.250000
45.978000 46.754000 483.554000
46.538000 46.759000 483.604000
47.115000 46.780000 483.822000
47.683000 46.793000 483.956000
48.260000 46.813000 484.163000
48.819000 46.817000 484.198000
49.399000 46.839000 484.431000
49.973000 46.855000 484.601000
50.549000 46.874000 484.795000
51.113000 46.881000 484.864000
51.700000 46.908000 485.145000
52.269000 46.919000 485.256000
52.913000 46.996000 486.056000
53.535000 47.052000 486.636000
54.215000 47.158000 487.726000
54.808000 47.185000 488.014000
55.385000 47.200000 488.165000
55.924000 47.181000 487.972000
56.441000 47.146000 487.606000
56.946000 47.100000 487.135000
57.473000 47.074000 486.862000
58.029000 47.071000 486.831000
58.631000 47.105000 487.186000
59.205000 47.118000 487.313000
59.798000 47.144000 487.580000
60.431000 47.201000 488.175000
61.094000 47.280000 488.991000
61.652000 47.278000 488.967000
86.454000 49.588000 512.857000
87.222000 49.690000 513.914000
87.863000 49.718000 514.210000
88.553000 49.775000 514.793000
89.237000 49.827000 515.329000
89.830000 49.827000 515.334000
90.435000 49.834000 515.411000
91.050000 49.847000 515.539000
91.603000 49.826000 515.323000
92.237000 49.849000 515.559000
92.814000 49.841000 515.477000
93.478000 49.879000 515.875000
94.108000 49.899000 516.082000
94.902000 50.005000 517.175000
95.464000 49.988000 517.003000
96.251000 50.089000 518.044000
96.908000 50.121000 518.378000
97.713000 50.229000 519.493000
98.328000 50.239000 519.591000
99.181000 50.369000 520.938000
99.813000 50.386000 521.112000
100.592000 50.477000 522.052000
101.247000 50.504000 522.339000
102.046000 50.603000 523.359000
102.687000 50.623000 523.561000
103.468000 50.711000 524.474000
104.156000 50.753000 524.909000
104.924000 50.833000 525.734000
105.611000 50.873000 526.150000
106.396000 50.960000 527.048000
107.125000 51.018000 527.656000
107.860000 51.080000 528.291000
108.581000 51.133000 528.844000
109.334000 51.202000 529.550000
110.073000 51.263000 530.182000
110.815000 51.324000 530.819000
111.602000 51.406000 531.667000
112.341000 51.465000 532.273000
113.126000 51.544000 533.094000
113.830000 51.586000 533.524000
114.634000 51.672000 534.418000
115.331000 51.709000 534.803000
10.657000 45.844000 468.578000
11.184000 45.802000 468.144000
11.710000 45.754000 467.654000
12.240000 45.729000 467.397000
12.763000 45.681000 466.914000
13.292000 45.655000 466.640000
13.820000 45.628000 466.372000
14.346000 45.598000 466.060000
14.872000 45.570000 465.779000
15.401000 45.555000 465.624000
15.923000 45.519000 465.249000
16.454000 45.510000 465.164000
16.979000 45.486000 464.911000
17.507000 45.470000 464.753000
18.033000 45.451000 464.556000
18.563000 45.441000 464.452000
19.093000 45.433000 464.374000
19.622000 45.424000 464.283000
20.145000 45.402000 464.054000
20.680000 45.407000 464.108000
21.205000 45.389000 463.922000
21.742000 45.398000 464.020000
22.270000 45.388000 463.914000
22.805000 45.393000 463.966000
23.335000 45.387000 463.901000
23.871000 45.394000 463.977000
24.405000 45.397000 464.004000
24.939000 45.399000 464.024000
25.479000 45.412000 464.155000
26.013000 45.413000 464.167000
26.551000 45.422000 464.257000
27.091000 45.433000 464.378000
27.633000 45.447000 464.516000
28.180000 45.469000 464.738000
28.722000 45.483000 464.888000
29.267000 45.499000 465.051000
29.814000 45.519000 465.256000
30.361000 45.539000 465.461000
30.913000 45.565000 465.724000
31.474000 45.602000 466.105000
32.022000 45.621000 466.300000
32.584000 45.658000 466.670000
33.141000 45.688000 466.977000
33.707000 45.728000 467.385000
34.272000 45.765000 467.772000
34.845000 45.813000 468.258000
35.426000 45.868000 468.823000
35.996000 45.909000 469.239000
36.588000 45.976000 469.927000
37.184000 46.046000 470.638000
37.780000 46.113000 471.329000
38.387000 46.192000 472.135000
43.693000 47.240000 482.843000
44.253000 47.247000 482.911000
44.819000 47.259000 483.035000
45.386000 47.272000 483.167000
45.959000 47.290000 483.355000
46.527000 47.303000 483.486000
47.098000 47.319000 483.656000
47.665000 47.330000 483.769000
48.240000 47.350000 483.969000
48.803000 47.357000 484.035000
49.382000 47.379000 484.269000
49.955000 47.395000 484.428000
50.524000 47.408000 484.556000
51.093000 47.419000 484.672000
51.677000 47.444000 484.926000
52.244000 47.453000 485.020000
52.883000 47.527000 485.774000
53.557000 47.631000 486.838000
54.251000 47.749000 488.047000
54.821000 47.757000 488.131000
55.410000 47.782000 488.387000
55.943000 47.759000 488.145000
56.441000 47.706000 487.604000
56.948000 47.662000 487.153000
57.468000 47.629000 486.820000
58.001000 47.607000 486.596000
58.602000 47.641000 486.945000
59.163000 47.643000 486.961000
59.766000 47.679000 487.326000
60.379000 47.720000 487.755000
61.035000 47.795000 488.521000
61.610000 47.806000 488.631000
89.254000 50.428000 515.428000
89.917000 50.468000 515.837000
90.533000 50.481000 515.971000
91.168000 50.505000 516.213000
91.755000 50.501000 516.178000
92.375000 50.516000 516.331000
92.924000 50.493000 516.089000
93.579000 50.526000 516.429000
94.140000 50.509000 516.258000
94.874000 50.584000 517.026000
95.430000 50.564000 516.818000
96.173000 50.643000 517.626000
96.760000 50.639000 517.587000
97.557000 50.744000 518.662000
98.210000 50.774000 518.968000
99.011000 50.879000 520.042000
99.634000 50.893000 520.178000
100.460000 51.009000 521.368000
101.109000 51.034000 521.627000
101.888000 51.124000 522.547000
102.564000 51.162000 522.935000
103.337000 51.248000 523.812000
103.995000 51.276000 524.098000
104.764000 51.358000 524.933000
105.478000 51.412000 525.486000
106.240000 51.489000 526.273000
106.954000 51.542000 526.815000
107.728000 51.623000 527.640000
108.439000 51.673000 528.156000
109.179000 51.736000 528.801000
109.934000 51.806000 529.513000
110.654000 51.859000 530.050000
111.415000 51.930000 530.777000
112.157000 51.991000 531.402000
112.933000 52.067000 532.183000
113.664000 52.122000 532.745000
114.474000 52.213000 533.672000
11.712000 46.302000 467.761000
12.244000 46.280000 467.545000
12.767000 46.232000 467.061000
13.296000 46.206000 466.795000
13.823000 46.177000 466.500000
14.352000 46.152000 466.255000
14.878000 46.126000 465.991000
15.405000 46.100000 465.725000
15.928000 46.066000 465.379000
16.457000 46.052000 465.245000
16.982000 46.027000 464.987000
17.511000 46.014000 464.859000
18.039000 45.998000 464.699000
18.567000 45.984000 464.554000
19.095000 45.972000 464.435000
19.628000 45.971000 464.418000
20.153000 45.952000 464.226000
20.685000 45.950000 464.208000
21.211000 45.934000 464.046000
21.747000 45.941000 464.118000
22.277000 45.936000 464.069000
22.813000 45.941000 464.121000
23.342000 45.933000 464.040000
23.875000 45.933000 464.043000
24.410000 45.939000 464.099000
24.947000 45.945000 464.161000
25.483000 45.950000 464.214000
26.021000 45.960000 464.309000
26.558000 45.966000 464.376000
27.097000 45.977000 464.485000
27.638000 45.990000 464.611000
28.184000 46.009000 464.810000
28.729000 46.028000 465.000000
29.275000 46.046000 465.181000
29.821000 46.064000 465.366000
30.370000 46.087000 465.592000
30.921000 46.112000 465.848000
31.481000 46.148000 466.210000
32.026000 46.162000 466.353000
32.591000 46.204000 466.774000
33.152000 46.239000 467.127000
33.719000 46.281000 467.557000
34.285000 46.321000 467.955000
34.856000 46.366000 468.409000
35.439000 46.424000 469.002000
36.016000 46.474000 469.500000
36.607000 46.540000 470.171000
37.201000 46.607000 470.850000
37.796000 46.675000 471.534000
38.411000 46.764000 472.433000
42.549000 47.755000 482.447000
43.117000 47.771000 482.611000
43.682000 47.783000 482.730000
44.249000 47.797000 482.867000
44.813000 47.806000 482.965000
45.377000 47.817000 483.071000
45.945000 47.830000 483.206000
46.513000 47.844000 483.344000
47.077000 47.853000 483.435000
47.645000 47.866000 483.571000
48.223000 47.889000 483.795000
48.789000 47.899000 483.903000
49.367000 47.921000 484.123000
49.932000 47.929000 484.207000
50.503000 47.944000 484.352000
51.073000 47.957000 484.486000
51.650000 47.975000 484.672000
52.212000 47.981000 484.725000
52.838000 48.044000 485.360000
53.563000 48.195000 486.887000
54.258000 48.316000 488.113000
54.830000 48.326000 488.214000
55.426000 48.357000 488.523000
55.933000 48.310000 488.053000
56.423000 48.250000 487.448000
56.920000 48.197000 486.914000
57.456000 48.178000 486.717000
57.984000 48.152000 486.456000
58.570000 48.175000 486.687000
59.138000 48.182000 486.757000
59.735000 48.213000 487.073000
60.334000 48.245000 487.391000
60.987000 48.319000 488.139000
61.592000 48.353000 488.488000
89.663000 50.916000 514.377000
90.434000 51.018000 515.407000
91.168000 51.097000 516.211000
91.818000 51.129000 516.532000
92.493000 51.174000 516.987000
93.116000 51.191000 517.154000
93.771000 51.224000 517.489000
94.339000 51.210000 517.345000
94.943000 51.215000 517.403000
95.520000 51.206000 517.309000
96.168000 51.235000 517.597000
96.711000 51.208000 517.324000
97.453000 51.286000 518.112000
98.079000 51.302000 518.275000
98.855000 51.396000 519.224000
99.480000 51.411000 519.378000
100.315000 51.533000 520.615000
100.946000 51.550000 520.786000
101.729000 51.644000 521.735000
102.431000 51.696000 522.258000
103.207000 51.784000 523.152000
103.867000 51.814000 523.451000
104.620000 51.890000 524.214000
105.321000 51.938000 524.708000
106.088000 52.019000 525.520000
106.801000 52.072000 526.061000
107.573000 52.153000 526.881000
108.307000 52.216000 527.513000
109.046000 52.280000 528.155000
109.794000 52.347000 528.840000
110.524000 52.406000 529.428000
111.256000 52.464000 530.017000
111.967000 52.512000 530.503000
112.758000 52.597000 531.361000
113.479000 52.648000 531.880000
114.291000 52.741000 532.818000
11.718000 46.860000 467.975000
12.248000 46.834000 467.717000
12.770000 46.779000 467.165000
13.302000 46.763000 467.004000
13.828000 46.729000 466.662000
14.357000 46.704000 466.418000
14.882000 46.671000 466.091000
15.408000 46.646000 465.837000
15.933000 46.616000 465.538000
16.463000 46.604000 465.418000
16.986000 46.570000 465.083000
17.517000 46.562000 465.003000
18.044000 46.545000 464.832000
18.572000 46.532000 464.698000
19.102000 46.521000 464.591000
19.631000 46.511000 464.490000
20.159000 46.500000 464.382000
20.691000 46.497000 464.349000
21.220000 46.487000 464.246000
21.755000 46.491000 464.287000
22.283000 46.482000 464.196000
22.819000 46.486000 464.242000
23.347000 46.477000 464.150000
23.882000 46.481000 464.187000
24.415000 46.481000 464.186000
24.955000 46.493000 464.315000
25.489000 46.496000 464.340000
26.029000 46.507000 464.445000
26.565000 46.511000 464.492000
27.109000 46.529000 464.674000
27.647000 46.539000 464.764000
28.192000 46.556000 464.943000
28.734000 46.570000 465.082000
29.281000 46.590000 465.277000
29.831000 46.615000 465.526000
30.381000 46.638000 465.762000
30.931000 46.661000 465.992000
31.491000 46.698000 466.362000
32.037000 46.714000 466.514000
32.599000 46.751000 466.887000
33.162000 46.789000 467.263000
33.729000 46.832000 467.695000
34.294000 46.870000 468.071000
34.869000 46.920000 468.577000
35.453000 46.982000 469.191000
36.037000 47.041000 469.781000
36.623000 47.101000 470.379000
37.217000 47.168000 471.052000
37.820000 47.246000 471.826000
38.434000 47.335000 472.722000
39.059000 47.435000 473.718000
39.699000 47.549000 474.860000
41.466000 48.339000 482.743000
41.988000 48.302000 482.373000
42.541000 48.301000 482.361000
43.114000 48.322000 482.573000
43.676000 48.331000 482.662000
44.244000 48.345000 482.807000
44.806000 48.354000 482.897000
45.374000 48.368000 483.032000
45.941000 48.382000 483.170000
46.504000 48.389000 483.247000
47.069000 48.400000 483.352000
47.636000 48.412000 483.474000
48.209000 48.430000 483.657000
48.777000 48.443000 483.784000
49.354000 48.464000 483.993000
49.921000 48.475000 484.104000
50.492000 48.489000 484.245000
51.060000 48.500000 484.358000
51.629000 48.513000 484.478000
52.197000 48.524000 484.588000
52.787000 48.554000 484.891000
53.518000 48.713000 486.483000
54.265000 48.882000 488.172000
54.822000 48.879000 488.141000
55.391000 48.887000 488.215000
55.886000 48.830000 487.648000
56.378000 48.771000 487.056000
56.877000 48.719000 486.540000
57.435000 48.719000 486.538000
57.967000 48.697000 486.316000
58.542000 48.710000 486.450000
59.107000 48.716000 486.506000
59.715000 48.756000 486.906000
60.296000 48.773000 487.084000
60.960000 48.857000 487.919000
61.576000 48.902000 488.366000
93.203000 51.833000 517.635000
93.907000 51.893000 518.239000
94.514000 51.900000 518.305000
95.125000 51.908000 518.390000
95.744000 51.921000 518.519000
96.306000 51.903000 518.339000
96.843000 51.872000 518.032000
97.491000 51.900000 518.311000
98.069000 51.891000 518.221000
98.806000 51.966000 518.970000
99.400000 51.965000 518.956000
100.162000 52.051000 519.819000
100.791000 52.068000 519.987000
101.608000 52.181000 521.111000
102.275000 52.216000 521.462000
103.048000 52.305000 522.348000
103.739000 52.351000 522.808000
104.501000 52.432000 523.617000
105.174000 52.467000 523.972000
105.943000 52.550000 524.801000
106.662000 52.608000 525.374000
107.394000 52.671000 526.007000
108.136000 52.738000 526.677000
108.896000 52.813000 527.428000
109.639000 52.880000 528.093000
110.347000 52.929000 528.580000
111.129000 53.012000 529.412000
111.825000 53.054000 529.832000
112.591000 53.128000 530.574000
113.312000 53.181000 531.096000
114.112000 53.269000 531.983000
11.723000 47.417000 468.172000
12.251000 47.383000 467.838000
12.774000 47.329000 467.302000
13.307000 47.315000 467.165000
13.833000 47.280000 466.821000
14.361000 47.254000 466.562000
14.886000 47.220000 466.225000
15.412000 47.193000 465.958000
15.938000 47.165000 465.676000
16.469000 47.153000 465.565000
16.992000 47.123000 465.264000
17.524000 47.117000 465.203000
18.050000 47.096000 464.996000
18.577000 47.078000 464.826000
19.107000 47.069000 464.733000
19.634000 47.053000 464.574000
20.165000 47.047000 464.520000
20.699000 47.047000 464.518000
21.227000 47.035000 464.400000
21.760000 47.036000 464.409000
22.288000 47.024000 464.291000
22.822000 47.025000 464.299000
23.353000 47.021000 464.262000
23.890000 47.028000 464.333000
24.421000 47.026000 464.304000
24.959000 47.034000 464.385000
25.497000 47.043000 464.472000
26.038000 47.058000 464.620000
26.573000 47.060000 464.645000
27.117000 47.077000 464.817000
27.656000 47.087000 464.911000
28.200000 47.104000 465.077000
28.742000 47.117000 465.210000
29.290000 47.138000 465.417000
29.838000 47.160000 465.634000
30.394000 47.193000 465.960000
30.940000 47.210000 466.124000
31.501000 47.248000 466.504000
32.050000 47.268000 466.697000
32.611000 47.305000 467.063000
33.177000 47.347000 467.476000
33.744000 47.390000 467.903000
34.311000 47.430000 468.300000
34.882000 47.476000 468.754000
35.469000 47.541000 469.394000
36.055000 47.604000 470.016000
36.638000 47.660000 470.568000
37.236000 47.734000 471.297000
37.840000 47.813000 472.080000
38.459000 47.909000 473.030000
39.097000 48.026000 474.179000
39.724000 48.125000 475.164000
41.465000 48.892000 482.730000
41.988000 48.855000 482.365000
42.542000 48.855000 482.370000
43.110000 48.871000 482.529000
43.672000 48.880000 482.611000
44.239000 48.894000 482.754000
44.801000 48.902000 482.835000
45.365000 48.913000 482.938000
45.934000 48.929000 483.095000
46.499000 48.940000 483.202000
47.066000 48.952000 483.321000
47.628000 48.959000 483.391000
48.198000 48.975000 483.549000
48.761000 48.982000 483.618000
49.344000 49.010000 483.893000
49.911000 49.021000 484.007000
50.483000 49.037000 484.159000
51.047000 49.045000 484.239000
51.621000 49.062000 484.408000
52.187000 49.070000 484.492000
52.755000 49.081000 484.603000
53.401000 49.163000 485.411000
54.175000 49.361000 487.362000
54.771000 49.394000 487.685000
55.315000 49.380000 487.547000
55.829000 49.339000 487.143000
56.319000 49.279000 486.551000
56.829000 49.237000 486.136000
57.407000 49.254000 486.302000
57.947000 49.238000 486.149000
58.518000 49.248000 486.251000
59.086000 49.257000 486.333000
59.680000 49.286000 486.618000
60.271000 49.312000 486.884000
60.932000 49.394000 487.693000
61.539000 49.433000 488.072000
95.965000 52.638000 519.720000
96.535000 52.623000 519.573000
97.067000 52.589000 519.229000
97.669000 52.591000 519.258000
98.223000 52.569000 519.037000
98.866000 52.594000 519.284000
99.429000 52.576000 519.109000
100.126000 52.629000 519.631000
100.706000 52.621000 519.546000
101.491000 52.719000 520.514000
102.118000 52.734000 520.662000
