49.883000 37.991000 458.218000
50.361000 37.954000 457.781000
50.845000 37.923000 457.403000
51.324000 37.890000 456.998000
51.813000 37.863000 456.684000
52.300000 37.836000 456.356000
52.781000 37.805000 455.982000
53.282000 37.789000 455.788000
53.769000 37.764000 455.483000
54.258000 37.740000 455.199000
54.771000 37.733000 455.112000
55.255000 37.707000 454.799000
55.765000 37.699000 454.696000
56.254000 37.677000 454.431000
56.766000 37.670000 454.356000
57.273000 37.660000 454.233000
57.780000 37.651000 454.120000
58.286000 37.641000 454.003000
58.802000 37.637000 453.956000
59.312000 37.630000 453.871000
59.831000 37.629000 453.858000
60.334000 37.618000 453.724000
60.871000 37.627000 453.838000
61.365000 37.611000 453.641000
61.921000 37.632000 453.893000
62.410000 37.613000 453.665000
62.970000 37.637000 453.946000
63.480000 37.629000 453.860000
64.037000 37.651000 454.119000
64.555000 37.649000 454.097000
65.118000 37.673000 454.385000
65.638000 37.672000 454.372000
66.198000 37.693000 454.632000
66.735000 37.702000 454.738000
67.307000 37.730000 455.076000
67.837000 37.734000 455.124000
68.426000 37.771000 455.566000
68.990000 37.793000 455.837000
69.584000 37.831000 456.298000
70.149000 37.854000 456.566000
70.746000 37.892000 457.033000
71.335000 37.927000 457.445000
71.944000 37.971000 457.979000
72.562000 38.019000 458.563000
87.185000 41.468000 500.161000
87.660000 41.421000 499.598000
88.181000 41.397000 499.297000
88.691000 41.367000 498.943000
89.227000 41.350000 498.737000
89.722000 41.314000 498.303000
90.277000 41.306000 498.207000
90.714000 41.245000 497.470000
91.270000 41.238000 497.382000
91.772000 41.207000 497.010000
92.286000 41.182000 496.707000
92.761000 41.139000 496.196000
93.293000 41.123000 495.995000
93.715000 41.058000 495.214000
94.382000 41.101000 495.731000
94.841000 41.053000 495.154000
95.761000 41.204000 496.979000
96.454000 41.257000 497.611000
97.344000 41.392000 499.246000
98.101000 41.470000 500.183000
98.976000 41.596000 501.706000
99.765000 41.685000 502.780000
100.628000 41.804000 504.208000
101.432000 41.897000 505.333000
102.304000 42.017000 506.778000
103.119000 42.112000 507.924000
103.999000 42.232000 509.377000
104.835000 42.334000 510.603000
105.711000 42.450000 512.003000
106.582000 42.563000 513.370000
107.452000 42.675000 514.712000
108.328000 42.787000 516.071000
109.197000 42.896000 517.379000
110.107000 43.019000 518.868000
110.962000 43.120000 520.081000
111.824000 43.222000 521.315000
112.731000 43.341000 522.744000
113.681000 43.475000 524.361000
114.556000 43.578000 525.611000
115.504000 43.709000 527.186000
116.384000 43.812000 528.432000
117.353000 43.948000 530.068000
118.248000 44.054000 531.352000
119.209000 44.184000 532.922000
120.075000 44.278000 534.054000
121.080000 44.422000 535.786000
121.992000 44.530000 537.093000
122.975000 44.663000 538.697000
123.866000 44.762000 539.886000
124.746000 44.855000 541.011000
125.606000 44.941000 542.045000
126.423000 45.010000 542.877000
127.204000 45.066000 543.552000
127.911000 45.095000 543.903000
128.598000 45.117000 544.170000
136.599000 45.283000 546.178000
137.594000 45.405000 547.643000
138.620000 45.535000 549.218000
139.668000 45.672000 550.861000
-198.946000 64.102000 762.596000
-198.057000 64.098000 762.545000
-197.144000 64.086000 762.401000
-196.223000 64.071000 762.225000
-195.298000 64.055000 762.031000
-194.385000 64.042000 761.881000
-193.466000 64.028000 761.709000
-192.430000 63.974000 761.071000
-191.577000 63.981000 761.151000
-190.619000 63.953000 760.818000
-189.672000 63.928000 760.525000
-188.797000 63.927000 760.517000
-187.770000 63.875000 759.896000
-186.711000 63.811000 759.136000
-185.678000 63.756000 758.476000
-184.783000 63.748000 758.379000
-183.825000 63.717000 758.017000
-182.934000 63.710000 757.934000
-182.193000 63.756000 758.473000
-181.186000 63.708000 757.902000
-180.648000 63.825000 759.302000
-179.817000 63.840000 759.472000
-179.320000 63.973000 761.063000
-178.405000 63.959000 760.890000
-177.818000 64.062000 762.119000
-177.075000 64.110000 762.685000
-176.515000 64.225000 764.054000
-175.846000 64.301000 764.960000
-175.124000 64.358000 765.645000
-174.593000 64.487000 767.174000
-173.747000 64.500000 767.325000
-173.235000 64.638000 768.965000
-172.585000 64.725000 770.006000
-172.021000 64.846000 771.440000
-171.229000 64.881000 771.863000
-170.492000 64.938000 772.541000
-169.921000 65.059000 773.982000
-169.180000 65.116000 774.655000
-168.644000 65.253000 776.285000
-167.845000 65.289000 776.712000
-167.302000 65.425000 778.335000
-166.566000 65.487000 779.071000
-165.918000 65.585000 780.233000
-165.265000 65.681000 781.379000
-164.537000 65.749000 782.183000
-163.980000 65.886000 783.817000
-163.170000 65.922000 784.248000
48.422000 38.610000 459.331000
48.889000 38.563000 458.763000
49.355000 38.516000 458.207000
49.834000 38.479000 457.766000
50.315000 38.445000 457.365000
50.797000 38.412000 456.977000
51.281000 38.382000 456.613000
51.768000 38.354000 456.282000
52.254000 38.326000 455.949000
52.740000 38.299000 455.627000
53.235000 38.279000 455.390000
53.737000 38.264000 455.210000
54.215000 38.232000 454.833000
54.728000 38.226000 454.762000
55.213000 38.200000 454.450000
55.715000 38.187000 454.292000
56.211000 38.169000 454.084000
56.722000 38.162000 453.998000
57.222000 38.148000 453.832000
57.733000 38.141000 453.751000
58.236000 38.129000 453.608000
58.755000 38.128000 453.596000
59.259000 38.117000 453.466000
59.790000 38.124000 453.545000
60.285000 38.108000 453.350000
60.825000 38.120000 453.495000
61.321000 38.104000 453.311000
61.873000 38.124000 453.543000
62.367000 38.108000 453.352000
62.925000 38.130000 453.616000
63.426000 38.118000 453.477000
63.979000 38.138000 453.709000
64.498000 38.137000 453.694000
65.060000 38.161000 453.980000
65.578000 38.159000 453.955000
66.139000 38.181000 454.227000
66.664000 38.184000 454.256000
67.255000 38.223000 454.723000
67.776000 38.222000 454.715000
68.362000 38.258000 455.140000
68.908000 38.271000 455.293000
69.517000 38.319000 455.860000
70.074000 38.337000 456.079000
70.667000 38.375000 456.527000
71.235000 38.398000 456.807000
71.862000 38.453000 457.461000
72.445000 38.484000 457.826000
73.096000 38.550000 458.607000
73.734000 38.608000 459.301000
87.638000 41.984000 499.470000
88.172000 41.965000 499.245000
88.685000 41.937000 498.907000
89.220000 41.919000 498.696000
89.720000 41.885000 498.290000
90.272000 41.876000 498.178000
90.709000 41.814000 497.440000
91.253000 41.801000 497.293000
91.758000 41.771000 496.934000
92.267000 41.743000 496.603000
92.734000 41.697000 496.051000
93.276000 41.685000 495.904000
93.687000 41.614000 495.068000
94.352000 41.657000 495.573000
94.812000 41.609000 495.002000
95.707000 41.752000 496.700000
96.410000 41.809000 497.383000
97.294000 41.944000 498.986000
98.059000 42.026000 499.965000
98.936000 42.155000 501.505000
99.717000 42.242000 502.536000
100.592000 42.368000 504.030000
101.397000 42.462000 505.156000
102.264000 42.582000 506.577000
103.079000 42.678000 507.725000
103.955000 42.799000 509.163000
104.800000 42.906000 510.429000
105.677000 43.024000 511.841000
106.551000 43.140000 513.219000
107.415000 43.251000 514.533000
108.262000 43.353000 515.756000
109.162000 43.476000 517.214000
110.068000 43.600000 518.686000
110.902000 43.693000 519.802000
111.769000 43.799000 521.058000
112.680000 43.921000 522.509000
113.637000 44.060000 524.159000
114.500000 44.160000 525.356000
115.469000 44.301000 527.026000
116.354000 44.407000 528.296000
117.304000 44.538000 529.845000
118.208000 44.649000 531.174000
119.149000 44.774000 532.654000
120.032000 44.875000 533.860000
121.048000 45.025000 535.645000
121.950000 45.131000 536.910000
122.949000 45.272000 538.585000
123.863000 45.380000 539.872000
124.800000 45.496000 541.246000
125.720000 45.604000 542.536000
126.607000 45.700000 543.669000
127.467000 45.784000 544.677000
128.284000 45.853000 545.492000
129.062000 45.907000 546.130000
139.593000 46.280000 550.569000
-179.278000 65.150000 764.612000
-178.185000 65.071000 763.692000
-177.302000 65.069000 763.665000
-176.655000 65.154000 764.661000
-176.009000 65.240000 765.668000
-175.166000 65.253000 765.827000
-174.631000 65.382000 767.339000
-173.663000 65.349000 766.957000
-173.169000 65.496000 768.673000
-172.557000 65.599000 769.882000
-171.994000 65.721000 771.319000
-171.179000 65.748000 771.636000
-170.493000 65.825000 772.543000
-169.931000 65.952000 774.026000
-169.173000 66.003000 774.624000
-168.605000 66.129000 776.107000
-167.818000 66.170000 776.588000
-167.300000 66.318000 778.327000
-166.546000 66.374000 778.979000
-165.884000 66.467000 780.071000
-165.188000 66.547000 781.016000
-164.509000 66.635000 782.051000
-163.935000 66.767000 783.599000
-163.149000 66.814000 784.147000
-162.630000 66.971000 785.990000
-161.883000 67.036000 786.748000
-161.239000 67.144000 788.015000
48.368000 39.095000 458.826000
48.839000 39.050000 458.297000
49.310000 39.006000 457.782000
49.783000 38.965000 457.305000
50.266000 38.932000 456.915000
50.751000 38.902000 456.561000
51.238000 38.874000 456.234000
51.724000 38.845000 455.897000
52.210000 38.817000 455.567000
52.703000 38.795000 455.311000
53.183000 38.764000 454.944000
53.698000 38.759000 454.880000
54.181000 38.730000 454.547000
54.684000 38.717000 454.391000
55.176000 38.696000 454.148000
55.665000 38.674000 453.885000
56.171000 38.663000 453.757000
56.678000 38.654000 453.649000
57.187000 38.645000 453.551000
57.691000 38.634000 453.421000
58.193000 38.622000 453.278000
58.714000 38.622000 453.278000
59.214000 38.609000 453.126000
59.741000 38.613000 453.176000
60.241000 38.600000 453.025000
60.774000 38.608000 453.114000
61.275000 38.596000 452.974000
61.819000 38.611000 453.151000
62.325000 38.602000 453.044000
62.871000 38.618000 453.230000
63.385000 38.614000 453.182000
63.925000 38.626000 453.324000
64.447000 38.627000 453.334000
65.007000 38.650000 453.608000
65.526000 38.649000 453.594000
66.087000 38.672000 453.869000
66.607000 38.672000 453.862000
67.192000 38.709000 454.298000
67.725000 38.715000 454.371000
68.311000 38.752000 454.799000
68.842000 38.756000 454.855000
69.439000 38.798000 455.346000
70.004000 38.822000 455.620000
70.585000 38.853000 455.994000
71.178000 38.891000 456.438000
71.788000 38.938000 456.984000
72.361000 38.964000 457.295000
73.007000 39.029000 458.049000
73.641000 39.086000 458.724000
88.151000 42.529000 499.129000
88.620000 42.479000 498.542000
89.175000 42.470000 498.442000
89.632000 42.416000 497.806000
90.196000 42.412000 497.762000
90.685000 42.374000 497.308000
91.227000 42.360000 497.149000
91.670000 42.301000 496.458000
92.234000 42.298000 496.423000
92.670000 42.238000 495.710000
93.238000 42.237000 495.702000
93.656000 42.169000 494.902000
94.302000 42.204000 495.312000
94.771000 42.159000 494.790000
95.690000 42.314000 496.612000
96.377000 42.366000 497.214000
97.252000 42.498000 498.771000
98.016000 42.582000 499.750000
98.895000 42.713000 501.293000
99.670000 42.799000 502.302000
100.546000 42.927000 503.799000
101.354000 43.024000 504.941000
102.224000 43.146000 506.378000
103.049000 43.249000 507.578000
103.927000 43.372000 509.026000
104.770000 43.479000 510.284000
105.645000 43.599000 511.686000
106.517000 43.715000 513.053000
107.355000 43.817000 514.247000
108.218000 43.928000 515.546000
109.106000 44.047000 516.949000
110.023000 44.177000 518.470000
110.869000 44.277000 519.646000
111.728000 44.381000 520.868000
112.649000 44.509000 522.368000
113.583000 44.640000 523.909000
114.460000 44.748000 525.172000
115.421000 44.887000 526.803000
116.310000 44.997000 528.095000
117.250000 45.125000 529.601000
118.156000 45.239000 530.941000
119.100000 45.367000 532.436000
119.995000 45.474000 533.696000
121.009000 45.625000 535.472000
121.908000 45.732000 536.723000
122.866000 45.859000 538.218000
123.824000 45.986000 539.702000
124.794000 46.115000 541.221000
125.731000 46.231000 542.580000
126.688000 46.354000 544.018000
127.596000 46.457000 545.226000
128.470000 46.546000 546.281000
129.328000 46.630000 547.256000
139.547000 46.896000 550.384000
-170.528000 66.726000 772.703000
-169.956000 66.850000 774.141000
-169.186000 66.897000 774.684000
-168.641000 67.034000 776.271000
-167.841000 67.071000 776.692000
-167.319000 67.219000 778.414000
-166.525000 67.260000 778.882000
-165.903000 67.370000 780.161000
-165.234000 67.463000 781.232000
-164.521000 67.538000 782.108000
-163.904000 67.654000 783.452000
-163.124000 67.704000 784.029000
-162.606000 67.864000 785.876000
-161.816000 67.911000 786.423000
-161.235000 68.047000 787.994000
-160.477000 68.109000 788.716000
-159.816000 68.214000 789.926000
-159.198000 68.338000 791.362000
48.321000 39.583000 458.376000
48.795000 39.540000 457.883000
49.269000 39.499000 457.404000
49.745000 39.460000 456.949000
50.223000 39.424000 456.532000
50.714000 39.397000 456.228000
51.201000 39.369000 455.901000
51.683000 39.337000 455.533000
52.170000 39.311000 455.224000
52.669000 39.293000 455.017000
53.147000 39.259000 454.632000
53.654000 39.249000 454.507000
54.141000 39.224000 454.217000
54.641000 39.208000 454.035000
55.143000 39.194000 453.879000
55.628000 39.169000 453.582000
56.134000 39.158000 453.462000
56.638000 39.147000 453.329000
57.147000 39.139000 453.235000
57.654000 39.130000 453.129000
58.150000 39.114000 452.942000
58.670000 39.113000 452.939000
59.171000 39.101000 452.798000
59.695000 39.104000 452.827000
60.201000 39.094000 452.721000
60.723000 39.096000 452.736000
61.235000 39.091000 452.681000
61.769000 39.100000 452.783000
62.285000 39.097000 452.753000
62.812000 39.102000 452.804000
63.335000 39.104000 452.829000
63.875000 39.116000 452.971000
64.401000 39.119000 453.010000
64.957000 39.141000 453.263000
65.472000 39.138000 453.221000
66.048000 39.171000 453.605000
66.563000 39.168000 453.567000
67.136000 39.198000 453.918000
67.668000 39.204000 453.988000
68.248000 39.238000 454.379000
68.786000 39.247000 454.489000
69.389000 39.293000 455.019000
69.932000 39.305000 455.156000
70.527000 39.345000 455.621000
71.110000 39.378000 456.007000
71.712000 39.421000 456.506000
72.289000 39.450000 456.837000
72.923000 39.509000 457.524000
73.551000 39.565000 458.165000
74.180000 39.619000 458.798000
88.616000 43.049000 498.517000
89.167000 43.039000 498.400000
89.624000 42.983000 497.756000
90.179000 42.976000 497.667000
90.669000 42.937000 497.220000
91.205000 42.921000 497.028000
91.640000 42.857000 496.295000
92.211000 42.858000 496.303000
92.635000 42.791000 495.523000
93.222000 42.799000 495.619000
93.639000 42.729000 494.814000
94.259000 42.753000 495.083000
94.746000 42.716000 494.661000
95.652000 42.867000 496.411000
96.347000 42.923000 497.058000
97.224000 43.059000 498.629000
97.983000 43.141000 499.579000
98.859000 43.273000 501.110000
99.634000 43.360000 502.117000
100.504000 43.487000 503.587000
101.313000 43.586000 504.737000
102.181000 43.710000 506.166000
103.011000 43.816000 507.393000
103.900000 43.945000 508.894000
104.744000 44.054000 510.159000
105.586000 44.162000 511.400000
106.464000 44.282000 512.797000
107.317000 44.392000 514.064000
108.183000 44.505000 515.376000
109.065000 44.624000 516.755000
109.979000 44.754000 518.262000
110.820000 44.854000 519.416000
111.704000 44.970000 520.756000
112.577000 45.080000 522.033000
113.544000 45.226000 523.729000
114.423000 45.336000 525.000000
115.370000 45.472000 526.574000
116.264000 45.585000 527.886000
117.196000 45.712000 529.357000
118.110000 45.831000 530.735000
119.053000 45.960000 532.224000
119.952000 46.070000 533.503000
120.970000 46.226000 535.300000
121.850000 46.326000 536.465000
122.815000 46.458000 537.994000
123.771000 46.585000 539.469000
124.750000 46.720000 541.029000
125.666000 46.830000 542.302000
126.680000 46.975000 543.983000
127.629000 47.095000 545.370000
128.566000 47.209000 546.691000
129.486000 47.316000 547.928000
130.360000 47.405000 548.958000
139.693000 47.578000 550.960000
-170.096000 67.795000 774.778000
-169.263000 67.818000 775.038000
-168.711000 67.954000 776.594000
-167.845000 67.964000 776.713000
-167.341000 68.122000 778.516000
-166.520000 68.152000 778.856000
-165.895000 68.263000 780.123000
-165.281000 68.380000 781.457000
-164.561000 68.453000 782.301000
-163.914000 68.558000 783.499000
-163.096000 68.593000 783.894000
-162.535000 68.736000 785.531000
-161.746000 68.784000 786.083000
-161.175000 68.926000 787.701000
-160.454000 69.005000 788.603000
-159.814000 69.120000 789.916000
-159.138000 69.220000 791.065000
-158.400000 69.295000 791.916000
-157.845000 69.451000 793.697000
-157.075000 69.513000 794.414000
48.279000 40.074000 457.979000
48.755000 40.034000 457.514000
49.232000 39.994000 457.060000
49.707000 39.954000 456.605000
50.189000 39.920000 456.218000
50.679000 39.894000 455.917000
51.163000 39.863000 455.558000
51.650000 39.835000 455.242000
52.135000 39.806000 454.911000
52.629000 39.785000 454.666000
53.113000 39.756000 454.343000
53.615000 39.741000 454.174000
54.106000 39.719000 453.917000
54.597000 39.698000 453.674000
55.104000 39.687000 453.556000
55.596000 39.667000 453.322000
56.098000 39.654000 453.172000
56.602000 39.642000 453.040000
57.102000 39.628000 452.878000
57.618000 39.626000 452.852000
58.118000 39.612000 452.690000
58.634000 39.609000 452.662000
59.138000 39.599000 452.543000
59.659000 39.600000 452.556000
60.164000 39.590000 452.440000
60.681000 39.588000 452.424000
61.201000 39.588000 452.424000
61.721000 39.589000 452.429000
62.248000 39.594000 452.487000
62.769000 39.594000 452.495000
63.293000 39.597000 452.529000
63.833000 39.610000 452.668000
64.354000 39.611000 452.679000
64.903000 39.629000 452.886000
65.427000 39.631000 452.910000
65.987000 39.655000 453.185000
66.520000 39.663000 453.272000
67.082000 39.687000 453.555000
67.617000 39.695000 453.646000
68.196000 39.729000 454.033000
68.733000 39.738000 454.136000
69.325000 39.779000 454.603000
69.871000 39.792000 454.758000
70.477000 39.840000 455.298000
71.044000 39.864000 455.580000
71.646000 39.908000 456.082000
72.225000 39.939000 456.432000
72.837000 39.988000 456.986000
73.445000 40.033000 457.505000
74.087000 40.096000 458.222000
88.608000 43.618000 498.477000
89.134000 43.595000 498.215000
89.599000 43.543000 497.621000
90.129000 43.523000 497.393000
90.625000 43.487000 496.982000
91.152000 43.466000 496.742000
91.633000 43.424000 496.260000
92.178000 43.412000 496.125000
92.600000 43.343000 495.332000
93.198000 43.356000 495.488000
93.612000 43.285000 494.669000
94.207000 43.297000 494.812000
94.712000 43.269000 494.483000
95.620000 43.423000 496.248000
96.310000 43.477000 496.866000
97.194000 43.618000 498.474000
97.941000 43.696000 499.368000
98.810000 43.827000 500.865000
99.590000 43.917000 501.898000
100.455000 44.044000 503.344000
101.263000 44.144000 504.489000
102.142000 44.274000 505.974000
102.969000 44.380000 507.184000
103.831000 44.500000 508.556000
104.680000 44.613000 509.846000
105.544000 44.731000 511.196000
106.427000 44.856000 512.620000
107.275000 44.964000 513.861000
108.152000 45.084000 515.231000
109.015000 45.196000 516.515000
109.930000 45.329000 518.031000
110.788000 45.437000 519.267000
111.660000 45.550000 520.553000
112.552000 45.669000 521.918000
113.493000 45.807000 523.493000
114.373000 45.919000 524.771000
115.329000 46.060000 526.383000
116.218000 46.173000 527.678000
117.133000 46.295000 529.073000
118.059000 46.420000 530.502000
119.000000 46.550000 531.989000
119.904000 46.664000 533.292000
120.911000 46.817000 535.039000
121.800000 46.923000 536.247000
122.765000 47.057000 537.779000
123.722000 47.186000 539.257000
124.698000 47.322000 540.803000
125.619000 47.435000 542.099000
126.627000 47.580000 543.754000
127.593000 47.708000 545.215000
128.556000 47.833000 546.649000
129.537000 47.964000 548.144000
130.471000 48.076000 549.426000
140.040000 48.330000 552.329000
140.786000 48.369000 552.769000
-170.135000 68.701000 774.956000
-169.296000 68.721000 775.189000
-168.637000 68.815000 776.250000
-167.837000 68.853000 776.676000
-167.359000 69.024000 778.601000
-166.560000 69.063000 779.044000
-165.918000 69.168000 780.233000
-165.348000 69.305000 781.771000
-164.561000 69.352000 782.301000
-163.938000 69.468000 783.614000
-163.100000 69.495000 783.913000
-162.532000 69.637000 785.515000
-161.625000 69.635000 785.492000
-161.136000 69.814000 787.511000
-160.436000 69.903000 788.517000
-159.761000 70.003000 789.653000
-159.160000 70.138000 791.174000
-158.368000 70.190000 791.756000
-157.832000 70.356000 793.630000
-157.099000 70.436000 794.532000
-156.581000 70.614000 796.539000
-155.816000 70.682000 797.305000
47.297000 40.660000 458.659000
47.770000 40.614000 458.140000
48.249000 40.575000 457.693000
48.726000 40.535000 457.241000
49.200000 40.492000 456.763000
49.680000 40.457000 456.359000
50.162000 40.422000 455.972000
50.650000 40.394000 455.656000
51.130000 40.360000 455.271000
51.615000 40.331000 454.938000
52.095000 40.298000 454.564000
52.593000 40.280000 454.363000
53.084000 40.256000 454.096000
53.575000 40.234000 453.842000
54.079000 40.220000 453.693000
54.566000 40.195000 453.411000
55.065000 40.180000 453.236000
55.569000 40.168000 453.099000
56.061000 40.147000 452.868000
56.575000 40.143000 452.823000
57.061000 40.120000 452.557000
57.586000 40.123000 452.593000
58.083000 40.108000 452.421000
58.602000 40.107000 452.414000
59.112000 40.100000 452.341000
59.627000 40.098000 452.313000
60.124000 40.083000 452.142000
60.648000 40.086000 452.177000
61.157000 40.079000 452.102000
61.686000 40.086000 452.176000
62.204000 40.085000 452.168000
62.733000 40.091000 452.235000
63.261000 40.097000 452.299000
63.798000 40.108000 452.424000
64.316000 40.107000 452.414000
64.858000 40.120000 452.567000
65.383000 40.124000 452.609000
65.943000 40.149000 452.884000
66.472000 40.154000 452.947000
67.037000 40.181000 453.250000
67.568000 40.187000 453.317000
68.143000 40.219000 453.680000
68.683000 40.230000 453.806000
69.263000 40.265000 454.196000
69.819000 40.285000 454.419000
70.424000 40.332000 454.952000
70.974000 40.348000 455.132000
71.580000 40.395000 455.666000
72.157000 40.425000 456.003000
72.765000 40.472000 456.535000
73.371000 40.517000 457.040000
74.007000 40.578000 457.727000
88.576000 44.174000 498.291000
89.104000 44.152000 498.046000
89.579000 44.104000 497.507000
90.114000 44.087000 497.308000
90.600000 44.046000 496.843000
91.130000 44.026000 496.622000
91.611000 43.983000 496.137000
92.160000 43.973000 496.027000
92.582000 43.903000 495.237000
93.177000 43.916000 495.379000
93.602000 43.848000 494.616000
94.180000 43.853000 494.670000
94.689000 43.826000 494.361000
95.589000 43.979000 496.087000
96.272000 44.030000 496.673000
97.154000 44.172000 498.270000
97.907000 44.254000 499.193000
98.776000 44.387000 500.694000
99.549000 44.475000 501.689000
100.413000 44.603000 503.130000
101.228000 44.708000 504.316000
102.075000 44.826000 505.644000
102.914000 44.938000 506.914000
103.786000 45.064000 508.334000
104.633000 45.178000 509.615000
105.498000 45.298000 510.972000
106.372000 45.421000 512.357000
107.231000 45.536000 513.651000
108.113000 45.659000 515.043000
108.978000 45.774000 516.339000
109.893000 45.908000 517.857000
110.736000 46.012000 519.021000
111.630000 46.135000 520.412000
112.504000 46.249000 521.695000
113.459000 46.394000 523.338000
114.337000 46.507000 524.609000
115.282000 46.645000 526.169000
116.153000 46.753000 527.381000
117.084000 46.883000 528.853000
118.010000 47.010000 530.286000
118.956000 47.144000 531.791000
119.864000 47.261000 533.112000
120.828000 47.399000 534.670000
121.754000 47.521000 536.047000
122.717000 47.656000 537.568000
123.676000 47.788000 539.057000
124.629000 47.916000 540.504000
125.577000 48.041000 541.918000
126.579000 48.186000 543.547000
127.542000 48.314000 544.997000
128.517000 48.446000 546.480000
129.506000 48.582000 548.011000
130.485000 48.712000 549.482000
-170.333000 69.671000 775.857000
-169.497000 69.694000 776.109000
-169.046000 69.876000 778.134000
-167.936000 69.786000 777.135000
-167.407000 69.938000 778.824000
-166.716000 70.023000 779.775000
-166.035000 70.113000 780.780000
-165.405000 70.227000 782.043000
-164.555000 70.247000 782.269000
-163.975000 70.384000 783.792000
-163.085000 70.388000 783.839000
-162.568000 70.554000 785.691000
-161.563000 70.510000 785.192000
-161.100000 70.702000 787.336000
-160.395000 70.790000 788.314000
-159.736000 70.899000 789.533000
-159.091000 71.016000 790.831000
-158.342000 71.087000 791.625000
-157.743000 71.228000 793.187000
-157.093000 71.346000 794.504000
-156.609000 71.541000 796.681000
47.264000 41.158000 458.336000
47.734000 41.110000 457.794000
48.212000 41.069000 457.346000
48.689000 41.029000 456.893000
49.166000 40.988000 456.444000
49.650000 40.955000 456.077000
50.136000 40.925000 455.736000
50.616000 40.889000 455.344000
51.093000 40.853000 454.942000
51.582000 40.827000 454.645000
52.064000 40.796000 454.298000
52.561000 40.776000 454.081000
53.055000 40.755000 453.848000
53.543000 40.730000 453.570000
54.049000 40.719000 453.441000
54.533000 40.691000 453.139000
55.026000 40.671000 452.915000
55.539000 40.666000 452.853000
56.028000 40.644000 452.609000
56.547000 40.643000 452.597000
57.034000 40.620000 452.343000
57.552000 40.618000 452.325000
58.043000 40.599000 452.112000
58.561000 40.598000 452.102000
59.070000 40.591000 452.019000
59.592000 40.594000 452.048000
60.090000 40.579000 451.882000
60.616000 40.583000 451.935000
61.124000 40.576000 451.856000
61.655000 40.585000 451.948000
62.168000 40.580000 451.902000
62.702000 40.590000 452.011000
63.218000 40.588000 451.992000
63.758000 40.602000 452.142000
64.278000 40.602000 452.146000
64.819000 40.616000 452.297000
65.348000 40.622000 452.365000
65.905000 40.645000 452.621000
66.433000 40.650000 452.677000
66.995000 40.675000 452.961000
67.530000 40.685000 453.065000
68.097000 40.713000 453.375000
68.653000 40.734000 453.612000
69.214000 40.758000 453.875000
69.767000 40.776000 454.078000
70.354000 40.814000 454.504000
70.909000 40.833000 454.714000
71.520000 40.884000 455.284000
72.112000 40.923000 455.716000
72.721000 40.971000 456.255000
73.327000 41.017000 456.768000
73.949000 41.071000 457.369000
87.043000 44.841000 499.349000
87.545000 44.804000 498.939000
88.043000 44.766000 498.516000
88.569000 44.743000 498.254000
89.075000 44.709000 497.883000
89.526000 44.650000 497.217000
90.080000 44.641000 497.118000
90.563000 44.598000 496.639000
91.097000 44.580000 496.441000
91.564000 44.530000 495.884000
92.122000 44.524000 495.822000
92.539000 44.451000 495.007000
93.140000 44.467000 495.182000
93.596000 44.413000 494.584000
94.166000 44.414000 494.597000
94.660000 44.380000 494.209000
95.551000 44.531000 495.890000
96.240000 44.586000 496.505000
97.107000 44.723000 498.030000
97.864000 44.807000 498.972000
98.732000 44.941000 500.466000
99.491000 45.025000 501.397000
100.358000 45.156000 502.855000
101.181000 45.266000 504.082000
102.041000 45.391000 505.474000
102.876000 45.504000 506.726000
103.739000 45.627000 508.106000
104.585000 45.742000 509.383000
105.452000 45.865000 510.747000
106.329000 45.991000 512.150000
107.189000 46.107000 513.450000
108.072000 46.233000 514.851000
108.935000 46.349000 516.139000
109.831000 46.477000 517.567000
110.695000 46.591000 518.832000
111.586000 46.714000 520.208000
112.461000 46.830000 521.494000
113.412000 46.976000 523.121000
114.286000 47.088000 524.375000
115.216000 47.223000 525.869000
116.104000 47.338000 527.158000
117.044000 47.474000 528.670000
117.967000 47.602000 530.092000
118.911000 47.736000 531.591000
119.796000 47.846000 532.812000
120.780000 47.994000 534.459000
121.700000 48.115000 535.805000
122.673000 48.256000 537.374000
123.625000 48.387000 538.834000
124.571000 48.514000 540.255000
125.533000 48.647000 541.728000
126.523000 48.789000 543.307000
127.479000 48.916000 544.726000
128.473000 49.057000 546.295000
129.463000 49.195000 547.830000
130.450000 49.330000 549.336000
131.403000 49.451000 550.687000
132.268000 49.538000 551.657000
-191.646000 71.534000 786.543000
-190.612000 71.485000 786.005000
-189.847000 71.537000 786.577000
-189.079000 71.588000 787.140000
-188.449000 71.692000 788.282000
-187.486000 71.670000 788.040000
-186.635000 71.691000 788.270000
-185.593000 71.638000 787.686000
-184.395000 71.524000 786.434000
-171.333000 70.977000 780.413000
-170.114000 70.842000 778.934000
-169.376000 70.908000 779.656000
-168.203000 70.791000 778.370000
-167.589000 70.909000 779.667000
-166.806000 70.957000 780.196000
-166.008000 70.999000 780.657000
-165.366000 71.108000 781.857000
-164.611000 71.170000 782.538000
-163.936000 71.267000 783.606000
-163.096000 71.293000 783.892000
-162.560000 71.453000 785.654000
-161.589000 71.423000 785.317000
-161.053000 71.585000 787.104000
-160.395000 71.695000 788.313000
-159.744000 71.809000 789.569000
-159.082000 71.920000 790.785000
-158.358000 72.004000 791.707000
-157.787000 72.158000 793.408000
-157.009000 72.219000 794.078000
-156.558000 72.432000 796.421000
47.239000 41.662000 458.091000
47.706000 41.611000 457.525000
48.186000 41.572000 457.095000
48.661000 41.529000 456.632000
49.137000 41.488000 456.175000
49.624000 41.458000 455.841000
50.104000 41.422000 455.448000
50.587000 41.389000 455.085000
51.064000 41.352000 454.682000
51.551000 41.324000 454.373000
52.036000 41.295000 454.052000
52.529000 41.272000 453.805000
53.022000 41.251000 453.569000
53.519000 41.232000 453.363000
54.019000 41.216000 453.188000
54.511000 41.195000 452.953000
54.995000 41.168000 452.655000
55.508000 41.163000 452.601000
55.994000 41.139000 452.333000
56.508000 41.134000 452.287000
57.002000 41.116000 452.086000
57.520000 41.116000 452.081000
58.016000 41.099000 451.895000
58.532000 41.097000 451.874000
59.036000 41.087000 451.763000
59.559000 41.090000 451.795000
60.059000 41.077000 451.652000
60.589000 41.084000 451.734000
61.090000 41.073000 451.608000
61.621000 41.081000 451.696000
62.130000 41.075000 451.630000
62.669000 41.088000 451.777000
63.181000 41.083000 451.726000
63.724000 41.099000 451.895000
64.240000 41.097000 451.881000
64.785000 41.113000 452.057000
65.299000 41.110000 452.023000
65.869000 41.142000 452.374000
66.388000 41.142000 452.372000
66.962000 41.176000 452.742000
67.487000 41.179000 452.776000
68.060000 41.211000 453.128000
68.609000 41.228000 453.321000
69.167000 41.250000 453.564000
69.726000 41.273000 453.812000
70.295000 41.301000 454.121000
70.862000 41.328000 454.415000
71.477000 41.382000 455.006000
72.048000 41.410000 455.315000
72.664000 41.463000 455.902000
73.266000 41.507000 456.390000
73.900000 41.569000 457.067000
74.506000 41.614000 457.564000
87.457000 45.332000 498.441000
87.999000 45.316000 498.269000
88.544000 45.302000 498.112000
89.064000 45.276000 497.822000
89.524000 45.219000 497.204000
90.075000 45.209000 497.094000
90.553000 45.163000 496.586000
91.081000 45.142000 496.355000
91.542000 45.088000 495.764000
92.096000 45.081000 495.682000
92.515000 45.008000 494.881000
93.107000 45.020000 495.006000
93.571000 44.969000 494.456000
94.124000 44.962000 494.379000
94.631000 44.933000 494.060000
95.505000 45.078000 495.650000
96.202000 45.138000 496.308000
97.057000 45.271000 497.774000
97.813000 45.357000 498.714000
98.672000 45.489000 500.164000
99.460000 45.586000 501.239000
100.326000 45.719000 502.696000
101.145000 45.829000 503.901000
102.008000 45.957000 505.311000
102.839000 46.069000 506.544000
103.705000 46.196000 507.937000
104.543000 46.309000 509.180000
105.408000 46.432000 510.536000
106.280000 46.557000 511.913000
107.143000 46.677000 513.229000
108.030000 46.806000 514.649000
108.873000 46.915000 515.843000
109.783000 47.051000 517.342000
110.643000 47.164000 518.588000
111.540000 47.292000 519.993000
112.420000 47.411000 521.306000
113.368000 47.558000 522.917000
114.235000 47.669000 524.139000
115.160000 47.803000 525.615000
116.054000 47.923000 526.933000
116.984000 48.057000 528.399000
117.912000 48.188000 529.846000
118.870000 48.330000 531.409000
119.750000 48.439000 532.606000
120.730000 48.587000 534.235000
121.657000 48.713000 535.618000
122.620000 48.852000 537.141000
123.543000 48.973000 538.478000
124.523000 49.116000 540.047000
125.487000 49.251000 541.528000
126.472000 49.393000 543.091000
127.431000 49.523000 544.523000
128.413000 49.661000 546.040000
129.414000 49.805000 547.622000
130.389000 49.937000 549.077000
131.358000 50.066000 550.497000
-206.347000 72.845000 790.966000
-205.380000 72.824000 790.740000
-204.487000 72.829000 790.800000
-203.458000 72.786000 790.330000
-202.530000 72.778000 790.248000
-201.545000 72.751000 789.946000
-200.540000 72.715000 789.558000
-199.631000 72.714000 789.551000
-198.645000 72.685000 789.233000
-197.769000 72.696000 789.356000
-197.075000 72.775000 790.206000
-196.302000 72.824000 790.748000
-195.230000 72.763000 790.083000
-194.054000 72.663000 788.990000
-193.082000 72.638000 788.720000
-192.239000 72.662000 788.978000
-191.223000 72.620000 788.526000
-190.382000 72.644000 788.791000
-189.484000 72.647000 788.826000
-188.674000 72.684000 789.226000
-187.772000 72.686000 789.243000
-186.798000 72.659000 788.956000
-185.743000 72.601000 788.324000
-184.660000 72.532000 787.568000
-183.874000 72.578000 788.072000
-183.312000 72.714000 789.550000
-182.639000 72.807000 790.562000
-181.710000 72.799000 790.469000
-180.739000 72.773000 790.191000
-179.681000 72.712000 789.528000
-178.545000 72.619000 788.516000
-177.383000 72.514000 787.377000
-176.229000 72.411000 786.263000
-175.180000 72.351000 785.609000
-174.314000 72.366000 785.771000
-173.498000 72.402000 786.159000
-172.434000 72.335000 785.429000
-171.201000 72.195000 783.908000
-170.239000 72.169000 783.626000
-169.226000 72.120000 783.102000
-168.110000 72.027000 782.094000
-167.304000 72.067000 782.524000
-166.288000 72.016000 781.973000
-165.618000 72.115000 783.048000
-164.721000 72.117000 783.060000
-164.116000 72.246000 784.465000
-163.264000 72.268000 784.700000
-162.587000 72.367000 785.784000
-161.578000 72.320000 785.267000
-161.065000 72.494000 787.163000
-160.380000 72.594000 788.240000
-159.807000 72.745000 789.881000
-159.170000 72.868000 791.226000
-158.381000 72.923000 791.822000
-157.830000 73.089000 793.620000
-156.978000 73.117000 793.924000
-156.596000 73.365000 796.616000
47.672000 42.107000 457.204000
48.149000 42.064000 456.747000
48.631000 42.028000 456.351000
49.108000 41.988000 455.913000
49.593000 41.954000 455.552000
50.073000 41.919000 455.166000
50.555000 41.885000 454.795000
51.033000 41.849000 454.408000
51.526000 41.825000 454.147000
52.011000 41.796000 453.835000
52.497000 41.768000 453.529000
52.990000 41.746000 453.292000
53.485000 41.726000 453.073000
53.977000 41.704000 452.835000
54.486000 41.696000 452.750000
54.968000 41.667000 452.435000
55.486000 41.666000 452.423000
55.968000 41.638000 452.121000
56.476000 41.630000 452.028000
56.972000 41.614000 451.852000
57.485000 41.609000 451.802000
57.991000 41.600000 451.700000
58.500000 41.593000 451.630000
59.009000 41.586000 451.555000
59.527000 41.586000 451.553000
60.030000 41.575000 451.431000
60.556000 41.580000 451.489000
61.061000 41.572000 451.395000
61.598000 41.584000 451.529000
62.105000 41.576000 451.444000
62.638000 41.586000 451.551000
63.146000 41.579000 451.474000
63.689000 41.595000 451.649000
64.197000 41.588000 451.579000
64.749000 41.610000 451.808000
65.268000 41.610000 451.809000
65.833000 41.639000 452.126000
66.351000 41.638000 452.119000
66.910000 41.663000 452.387000
67.445000 41.673000 452.491000
68.018000 41.705000 452.847000
68.554000 41.715000 452.956000
69.129000 41.748000 453.312000
69.691000 41.773000 453.587000
70.264000 41.804000 453.922000
70.831000 41.831000 454.215000
71.428000 41.876000 454.698000
71.993000 41.901000 454.970000
72.601000 41.950000 455.504000
73.209000 41.998000 456.030000
73.834000 42.056000 456.657000
74.453000 42.110000 457.243000
88.378000 45.788000 497.181000
88.961000 45.794000 497.249000
89.482000 45.769000 496.972000
90.043000 45.764000 496.920000
90.495000 45.704000 496.267000
91.037000 45.690000 496.117000
91.489000 45.632000 495.480000
92.050000 45.628000 495.437000
92.480000 45.559000 494.693000
93.053000 45.562000 494.720000
93.542000 45.523000 494.298000
97.778000 45.913000 498.532000
98.649000 46.052000 500.049000
99.432000 46.149000 501.102000
100.295000 46.282000 502.540000
101.108000 46.390000 503.718000
101.972000 46.520000 505.131000
102.800000 46.633000 506.352000
103.673000 46.764000 507.779000
104.510000 46.878000 509.018000
105.370000 47.001000 510.354000
106.229000 47.122000 511.667000
107.075000 47.236000 512.904000
107.973000 47.372000 514.376000
108.830000 47.488000 515.638000
109.739000 47.626000 517.131000
110.596000 47.739000 518.367000
111.481000 47.864000 519.716000
112.379000 47.993000 521.117000
113.322000 48.139000 522.703000
114.173000 48.245000 523.854000
115.125000 48.392000 525.453000
116.010000 48.510000 526.733000
116.947000 48.648000 528.232000
117.859000 48.775000 529.608000
118.796000 48.910000 531.078000
119.707000 49.033000 532.414000
120.672000 49.177000 533.979000
121.612000 49.310000 535.421000
122.574000 49.450000 536.939000
123.500000 49.574000 538.288000
124.477000 49.717000 539.845000
125.436000 49.852000 541.309000
126.400000 49.988000 542.780000
127.374000 50.126000 544.278000
128.355000 50.265000 545.791000
129.357000 50.411000 547.381000
130.339000 50.549000 548.870000
131.322000 50.685000 550.348000
-198.217000 74.109000 794.784000
-197.179000 74.062000 794.280000
-195.903000 73.925000 792.808000
-194.788000 73.847000 791.977000
-193.637000 73.755000 790.990000
-192.651000 73.725000 790.670000
-191.673000 73.698000 790.382000
-190.726000 73.683000 790.218000
-189.792000 73.673000 790.106000
-188.858000 73.662000 789.995000
-187.956000 73.664000 790.017000
-186.951000 73.626000 789.604000
-186.014000 73.614000 789.473000
-184.991000 73.568000 788.979000
-184.343000 73.671000 790.084000
-183.708000 73.780000 791.255000
-182.899000 73.820000 791.685000
-182.148000 73.884000 792.374000
-181.193000 73.866000 792.175000
-180.265000 73.858000 792.096000
-179.108000 73.756000 791.002000
-178.005000 73.676000 790.138000
-177.062000 73.661000 789.978000
-176.156000 73.661000 789.986000
-175.212000 73.646000 789.818000
-174.375000 73.675000 790.134000
-173.237000 73.577000 789.085000
-172.320000 73.573000 789.035000
-171.275000 73.513000 788.396000
-170.295000 73.481000 788.048000
-169.352000 73.464000 787.870000
-168.281000 73.392000 787.095000
-167.168000 73.300000 786.111000
-166.165000 73.256000 785.635000
-165.102000 73.185000 784.873000
-164.255000 73.208000 785.128000
-163.428000 73.242000 785.487000
-162.767000 73.350000 786.650000
-161.802000 73.323000 786.354000
-161.248000 73.482000 788.056000
-160.414000 73.514000 788.409000
-159.878000 73.685000 790.234000
-159.198000 73.790000 791.362000
-158.413000 73.848000 791.983000
-157.806000 73.989000 793.501000
-157.009000 74.043000 794.080000
-156.536000 74.251000 796.314000
47.651000 42.612000 456.998000
48.121000 42.564000 456.482000
48.607000 42.530000 456.117000
49.079000 42.486000 455.643000
49.563000 42.452000 455.276000
50.047000 42.419000 454.929000
50.531000 42.387000 454.585000
51.012000 42.353000 454.215000
51.504000 42.329000 453.961000
51.991000 42.301000 453.662000
52.477000 42.273000 453.359000
52.969000 42.250000 453.109000
53.459000 42.226000 452.855000
53.946000 42.200000 452.578000
54.463000 42.198000 452.554000
54.943000 42.168000 452.229000
55.467000 42.171000 452.268000
55.943000 42.139000 451.920000
56.448000 42.128000 451.807000
56.949000 42.115000 451.665000
57.459000 42.109000 451.597000
57.963000 42.098000 451.484000
58.480000 42.097000 451.470000
58.983000 42.086000 451.353000
59.505000 42.089000 451.383000
60.003000 42.075000 451.234000
60.532000 42.082000 451.315000
61.029000 42.068000 451.159000
61.568000 42.082000 451.313000
62.072000 42.072000 451.205000
62.616000 42.090000 451.395000
63.104000 42.070000 451.178000
63.666000 42.098000 451.484000
64.169000 42.089000 451.381000
64.730000 42.116000 451.678000
65.237000 42.108000 451.594000
65.793000 42.132000 451.852000
66.320000 42.138000 451.909000
66.885000 42.167000 452.222000
67.407000 42.169000 452.240000
67.984000 42.204000 452.622000
68.516000 42.212000 452.707000
69.081000 42.240000 453.003000
69.641000 42.264000 453.259000
70.221000 42.300000 453.646000
70.785000 42.325000 453.919000
71.387000 42.373000 454.436000
71.955000 42.401000 454.727000
72.563000 42.451000 455.266000
73.145000 42.485000 455.633000
73.776000 42.547000 456.301000
74.392000 42.600000 456.864000
75.035000 42.667000 457.587000
75.668000 42.728000 458.239000
76.367000 42.825000 459.281000
97.744000 46.469000 498.361000
98.621000 46.613000 499.904000
99.406000 46.712000 500.970000
100.270000 46.847000 502.414000
101.081000 46.956000 503.583000
101.940000 47.086000 504.975000
102.764000 47.198000 506.175000
103.636000 47.331000 507.601000
104.476000 47.447000 508.852000
105.334000 47.571000 510.179000
106.171000 47.684000 511.390000
107.037000 47.808000 512.722000
107.930000 47.944000 514.175000
108.778000 48.058000 515.395000
109.681000 48.194000 516.859000
110.560000 48.319000 518.199000
111.449000 48.447000 519.569000
112.329000 48.569000 520.882000
113.270000 48.717000 522.463000
114.131000 48.828000 523.660000
115.080000 48.976000 525.250000
115.972000 49.098000 526.559000
116.901000 49.235000 528.027000
117.776000 49.348000 529.232000
118.749000 49.500000 530.866000
119.653000 49.622000 532.174000
120.620000 49.769000 533.750000
121.567000 49.906000 535.223000
122.501000 50.036000 536.619000
123.455000 50.174000 538.093000
124.421000 50.315000 539.603000
125.388000 50.454000 541.100000
126.352000 50.592000 542.573000
127.324000 50.731000 544.063000
128.304000 50.872000 545.575000
129.307000 51.020000 547.170000
130.287000 51.158000 548.648000
131.278000 51.299000 550.163000
-189.994000 74.659000 790.947000
-188.979000 74.617000 790.501000
-188.031000 74.601000 790.331000
-187.001000 74.552000 789.815000
-186.216000 74.601000 790.332000
-185.226000 74.568000 789.980000
-184.847000 74.781000 792.241000
-184.084000 74.841000 792.876000
-183.145000 74.829000 792.750000
-182.368000 74.884000 793.331000
-181.419000 74.868000 793.163000
-180.650000 74.927000 793.787000
-179.558000 74.852000 792.990000
-178.695000 74.872000 793.203000
-177.728000 74.849000 792.952000
-176.885000 74.877000 793.252000
-175.870000 74.833000 792.783000
-175.074000 74.882000 793.302000
-174.221000 74.906000 793.565000
-173.163000 74.843000 792.896000
-172.206000 74.823000 792.678000
-171.219000 74.789000 792.324000
-170.326000 74.797000 792.403000
-169.392000 74.786000 792.288000
-168.391000 74.746000 791.862000
-167.361000 74.692000 791.292000
-166.311000 74.628000 790.620000
-165.267000 74.567000 789.969000
-164.346000 74.561000 789.903000
-163.145000 74.427000 788.481000
-162.066000 74.347000 787.636000
-161.571000 74.536000 789.638000
-160.686000 74.546000 789.746000
-160.078000 74.685000 791.220000
-159.269000 74.732000 791.714000
-158.603000 74.846000 792.929000
-157.836000 74.914000 793.651000
-157.005000 74.953000 794.060000
-156.515000 75.156000 796.207000
47.631000 43.119000 456.804000
48.096000 43.065000 456.239000
48.580000 43.030000 455.864000
49.057000 42.989000 455.434000
49.537000 42.953000 455.043000
50.021000 42.919000 454.687000
50.506000 42.888000 454.358000
50.990000 42.856000 454.021000
51.480000 42.830000 453.750000
51.965000 42.801000 453.434000
52.456000 42.776000 453.172000
52.947000 42.752000 452.922000
53.441000 42.732000 452.707000
53.924000 42.703000 452.397000
54.431000 42.693000 452.294000
54.917000 42.667000 452.014000
55.431000 42.663000 451.976000
55.920000 42.640000 451.733000
56.425000 42.629000 451.619000
56.924000 42.615000 451.467000
57.438000 42.611000 451.429000
57.933000 42.594000 451.247000
58.450000 42.594000 451.240000
58.950000 42.580000 451.100000
59.479000 42.588000 451.186000
59.972000 42.571000 451.001000
60.502000 42.579000 451.089000
60.996000 42.563000 450.913000
61.541000 42.582000 451.113000
62.035000 42.565000 450.940000
62.589000 42.589000 451.196000
63.075000 42.568000 450.966000
63.640000 42.600000 451.303000
64.138000 42.586000 451.163000
64.696000 42.612000 451.438000
65.207000 42.608000 451.391000
65.764000 42.632000 451.651000
66.292000 42.639000 451.719000
66.854000 42.666000 452.009000
67.380000 42.671000 452.058000
67.959000 42.708000 452.457000
68.484000 42.712000 452.491000
69.052000 42.741000 452.807000
69.601000 42.760000 452.998000
70.184000 42.798000 453.404000
70.756000 42.829000 453.735000
71.333000 42.862000 454.088000
71.916000 42.899000 454.479000
72.523000 42.950000 455.015000
73.098000 42.981000 455.340000
73.731000 43.045000 456.021000
74.351000 43.101000 456.615000
74.983000 43.163000 457.271000
75.614000 43.223000 457.913000
76.284000 43.306000 458.783000
89.430000 46.586000 493.532000
89.936000 46.554000 493.200000
90.583000 46.596000 493.640000
91.140000 46.591000 493.585000
91.750000 46.613000 493.818000
92.177000 46.542000 493.071000
92.676000 46.509000 492.716000
93.106000 46.441000 491.996000
97.710000 47.025000 498.190000
98.580000 47.168000 499.698000
99.376000 47.273000 500.817000
100.239000 47.409000 502.259000
101.051000 47.520000 503.432000
101.910000 47.651000 504.824000
102.731000 47.764000 506.012000
103.599000 47.896000 507.417000
104.423000 48.008000 508.596000
105.274000 48.130000 509.889000
106.124000 48.250000 511.163000
106.990000 48.376000 512.500000
107.887000 48.514000 513.966000
108.742000 48.633000 515.223000
109.644000 48.771000 516.685000
110.519000 48.896000 518.007000
111.405000 49.024000 519.361000
112.260000 49.137000 520.562000
113.211000 49.291000 522.193000
114.079000 49.407000 523.422000
115.033000 49.559000 525.034000
115.930000 49.685000 526.370000
116.863000 49.825000 527.852000
117.735000 49.938000 529.050000
118.716000 50.096000 530.716000
119.610000 50.215000 531.984000
120.571000 50.361000 533.532000
121.493000 50.490000 534.895000
122.452000 50.632000 536.405000
123.409000 50.773000 537.893000
124.368000 50.913000 539.374000
125.315000 51.046000 540.787000
126.291000 51.190000 542.312000
127.271000 51.334000 543.839000
128.254000 51.478000 545.361000
129.221000 51.614000 546.805000
130.230000 51.766000 548.410000
131.226000 51.911000 549.946000
-189.076000 75.564000 790.906000
-188.088000 75.532000 790.571000
-186.879000 75.410000 789.299000
-186.324000 75.552000 790.790000
-185.242000 75.482000 790.050000
-185.188000 75.831000 793.705000
-184.283000 75.834000 793.732000
-183.405000 75.847000 793.876000
-182.543000 75.868000 794.094000
-181.686000 75.891000 794.331000
-180.972000 75.974000 795.204000
-180.061000 75.975000 795.211000
-179.341000 76.057000 796.068000
-178.356000 76.027000 795.754000
-177.459000 76.034000 795.830000
-176.533000 76.029000 795.773000
-176.008000 76.197000 797.537000
-175.089000 76.195000 797.519000
-174.148000 76.185000 797.407000
-173.170000 76.157000 797.115000
-172.108000 76.092000 796.437000
-171.205000 76.097000 796.491000
-170.172000 76.044000 795.937000
-169.402000 76.109000 796.615000
-168.308000 76.028000 795.769000
-167.331000 75.999000 795.467000
-166.300000 75.946000 794.905000
-165.094000 75.811000 793.494000
-164.079000 75.763000 792.992000
-162.926000 75.650000 791.814000
-162.044000 75.663000 791.950000
-160.955000 75.579000 791.067000
-160.290000 75.694000 792.271000
-159.360000 75.684000 792.169000
-158.751000 75.828000 793.671000
-157.900000 75.857000 793.976000
-157.123000 75.922000 794.657000
-156.507000 76.066000 796.164000
47.608000 43.622000 456.585000
48.075000 43.570000 456.041000
48.559000 43.535000 455.674000
49.038000 43.496000 455.264000
49.519000 43.459000 454.876000
50.001000 43.424000 454.507000
50.490000 43.396000 454.210000
50.971000 43.362000 453.855000
