96.288000 -59.293000 488.081000
96.964000 -59.363000 488.661000
97.341000 -59.252000 487.739000
98.018000 -59.322000 488.321000
98.399000 -59.215000 487.435000
99.040000 -59.263000 487.832000
99.465000 -59.182000 487.169000
99.954000 -59.141000 486.827000
100.521000 -59.146000 486.868000
101.007000 -59.103000 486.515000
101.573000 -59.107000 486.548000
102.070000 -59.071000 486.255000
102.535000 -59.018000 485.816000
103.110000 -59.028000 485.896000
103.537000 -58.953000 485.282000
104.154000 -58.987000 485.559000
104.600000 -58.924000 485.043000
105.163000 -58.927000 485.069000
105.659000 -58.893000 484.788000
106.127000 -58.844000 484.385000
106.703000 -58.855000 484.476000
107.123000 -58.780000 483.859000
107.738000 -58.812000 484.125000
108.148000 -58.733000 483.474000
108.787000 -58.778000 483.845000
109.180000 -58.691000 483.129000
109.788000 -58.720000 483.361000
110.193000 -58.640000 482.703000
110.779000 -58.657000 482.843000
111.182000 -58.577000 482.184000
111.798000 -58.610000 482.455000
112.203000 -58.532000 481.814000
112.812000 -58.561000 482.055000
113.209000 -58.480000 481.389000
113.808000 -58.504000 481.586000
114.220000 -58.432000 480.991000
114.807000 -58.449000 481.137000
115.239000 -58.388000 480.634000
115.802000 -58.394000 480.678000
116.280000 -58.357000 480.373000
116.798000 -58.340000 480.236000
117.285000 -58.308000 479.972000
117.766000 -58.273000 479.687000
118.296000 -58.263000 479.604000
118.758000 -58.219000 479.242000
119.306000 -58.218000 479.234000
119.746000 -58.165000 478.794000
120.315000 -58.174000 478.868000
120.739000 -58.113000 478.370000
121.325000 -58.131000 478.517000
121.706000 -58.051000 477.856000
122.325000 -58.084000 478.130000
122.684000 -57.994000 477.389000
123.359000 -58.054000 477.882000
123.707000 -57.960000 477.107000
124.327000 -57.993000 477.383000
124.692000 -57.909000 476.686000
125.292000 -57.933000 476.883000
125.678000 -57.858000 476.272000
126.255000 -57.872000 476.386000
126.689000 -57.821000 475.962000
127.199000 -57.804000 475.825000
90.084000 -59.074000 490.919000
90.627000 -59.061000 490.809000
91.117000 -59.013000 490.415000
91.684000 -59.016000 490.434000
92.167000 -58.964000 490.007000
92.719000 -58.957000 489.949000
93.217000 -58.917000 489.612000
93.763000 -58.907000 489.527000
94.237000 -58.852000 489.071000
94.812000 -58.860000 489.142000
95.243000 -58.779000 488.471000
95.880000 -58.826000 488.856000
96.270000 -58.722000 487.990000
96.946000 -58.792000 488.574000
97.329000 -58.684000 487.680000
97.999000 -58.750000 488.227000
98.381000 -58.644000 487.341000
99.002000 -58.680000 487.646000
99.442000 -58.610000 487.059000
99.921000 -58.562000 486.665000
100.500000 -58.574000 486.766000
100.990000 -58.534000 486.434000
101.519000 -58.517000 486.289000
102.047000 -58.500000 486.148000
102.482000 -58.429000 485.562000
103.086000 -58.456000 485.779000
103.513000 -58.382000 485.169000
104.125000 -58.413000 485.425000
104.578000 -58.354000 484.939000
105.107000 -58.339000 484.813000
105.631000 -58.321000 484.659000
106.085000 -58.265000 484.192000
106.672000 -58.282000 484.335000
107.082000 -58.203000 483.676000
107.711000 -58.242000 484.007000
108.121000 -58.164000 483.353000
108.745000 -58.201000 483.663000
109.153000 -58.122000 483.009000
109.737000 -58.138000 483.137000
110.162000 -58.069000 482.570000
110.730000 -58.076000 482.628000
111.135000 -57.999000 481.981000
111.753000 -58.032000 482.260000
112.159000 -57.956000 481.626000
112.775000 -57.988000 481.895000
113.159000 -57.902000 481.178000
113.767000 -57.930000 481.410000
114.180000 -57.859000 480.822000
114.764000 -57.875000 480.956000
115.198000 -57.816000 480.464000
115.754000 -57.818000 480.482000
116.237000 -57.784000 480.197000
116.737000 -57.759000 479.987000
117.245000 -57.737000 479.806000
117.725000 -57.703000 479.521000
118.250000 -57.690000 479.417000
118.720000 -57.651000 479.092000
119.264000 -57.648000 479.067000
119.710000 -57.598000 478.649000
120.272000 -57.603000 478.698000
120.680000 -57.536000 478.136000
121.287000 -57.564000 478.368000
121.654000 -57.478000 477.652000
122.285000 -57.516000 477.973000
122.646000 -57.428000 477.241000
123.307000 -57.481000 477.681000
123.667000 -57.394000 476.954000
124.277000 -57.422000 477.193000
124.654000 -57.344000 476.538000
125.239000 -57.361000 476.682000
125.641000 -57.295000 476.133000
126.209000 -57.304000 476.211000
126.663000 -57.262000 475.862000
127.168000 -57.244000 475.708000
87.967000 -58.603000 491.694000
88.482000 -58.570000 491.418000
89.013000 -58.547000 491.230000
89.536000 -58.521000 491.006000
90.040000 -58.482000 490.682000
90.591000 -58.474000 490.614000
91.077000 -58.424000 490.198000
91.641000 -58.425000 490.206000
92.134000 -58.381000 489.835000
92.679000 -58.370000 489.738000
93.181000 -58.332000 489.424000
93.731000 -58.325000 489.361000
94.194000 -58.264000 488.849000
94.786000 -58.282000 489.006000
95.199000 -58.191000 488.243000
95.853000 -58.248000 488.720000
96.241000 -58.143000 487.840000
96.913000 -58.211000 488.408000
97.299000 -58.106000 487.529000
97.938000 -58.153000 487.923000
98.351000 -58.067000 487.196000
98.923000 -58.074000 487.256000
99.424000 -58.039000 486.968000
99.904000 -57.993000 486.582000
100.471000 -57.998000 486.624000
100.967000 -57.962000 486.321000
101.440000 -57.914000 485.914000
102.026000 -57.930000 486.046000
102.438000 -57.847000 485.355000
103.056000 -57.881000 485.640000
103.487000 -57.811000 485.047000
104.098000 -57.840000 485.298000
104.557000 -57.786000 484.845000
105.066000 -57.760000 484.621000
105.608000 -57.752000 484.558000
106.026000 -57.677000 483.923000
106.644000 -57.710000 484.208000
107.062000 -57.636000 483.583000
107.698000 -57.679000 483.947000
108.104000 -57.600000 483.278000
108.704000 -57.624000 483.478000
109.118000 -57.549000 482.852000
109.703000 -57.565000 482.987000
110.130000 -57.498000 482.429000
110.698000 -57.506000 482.490000
111.097000 -57.425000 481.816000
111.730000 -57.467000 482.162000
112.131000 -57.388000 481.505000
112.744000 -57.419000 481.761000
113.140000 -57.340000 481.097000
113.750000 -57.368000 481.336000
114.162000 -57.298000 480.747000
114.726000 -57.304000 480.796000
115.179000 -57.255000 480.385000
115.730000 -57.254000 480.379000
116.210000 -57.219000 480.084000
116.709000 -57.193000 479.870000
117.218000 -57.173000 479.700000
117.686000 -57.133000 479.360000
118.218000 -57.124000 479.287000
118.693000 -57.087000 478.980000
119.238000 -57.085000 478.962000
119.684000 -57.036000 478.547000
120.233000 -57.035000 478.542000
120.651000 -56.973000 478.022000
121.254000 -56.999000 478.237000
121.620000 -56.913000 477.515000
122.246000 -56.949000 477.820000
122.600000 -56.859000 477.062000
123.266000 -56.914000 477.521000
123.616000 -56.822000 476.755000
124.236000 -56.856000 477.036000
124.613000 -56.778000 476.380000
125.201000 -56.797000 476.540000
125.605000 -56.732000 475.995000
126.168000 -56.739000 476.056000
126.626000 -56.699000 475.723000
127.115000 -56.674000 475.512000
87.365000 -58.013000 491.481000
87.946000 -58.024000 491.573000
88.455000 -57.988000 491.265000
88.987000 -57.967000 491.088000
89.513000 -57.942000 490.883000
90.017000 -57.904000 490.559000
90.568000 -57.896000 490.492000
91.058000 -57.850000 490.096000
91.622000 -57.850000 490.102000
92.107000 -57.801000 489.686000
92.652000 -57.791000 489.596000
93.143000 -57.747000 489.226000
93.710000 -57.750000 489.252000
94.159000 -57.680000 488.663000
94.771000 -57.712000 488.928000
95.177000 -57.617000 488.128000
95.836000 -57.677000 488.632000
96.220000 -57.571000 487.733000
96.896000 -57.640000 488.320000
97.276000 -57.533000 487.412000
97.900000 -57.571000 487.733000
98.334000 -57.497000 487.112000
98.874000 -57.486000 487.013000
99.403000 -57.468000 486.867000
99.889000 -57.426000 486.511000
100.422000 -57.412000 486.389000
100.941000 -57.389000 486.199000
101.366000 -57.314000 485.558000
101.991000 -57.352000 485.881000
102.412000 -57.275000 485.230000
103.034000 -57.311000 485.538000
103.465000 -57.242000 484.945000
104.043000 -57.253000 485.042000
104.536000 -57.218000 484.746000
105.025000 -57.181000 484.434000
105.577000 -57.179000 484.415000
105.998000 -57.106000 483.795000
106.619000 -57.141000 484.096000
107.035000 -57.066000 483.460000
107.653000 -57.100000 483.744000
108.065000 -57.024000 483.105000
108.645000 -57.038000 483.217000
109.084000 -56.977000 482.703000
109.654000 -56.985000 482.774000
110.067000 -56.912000 482.154000
110.664000 -56.934000 482.340000
111.059000 -56.853000 481.655000
111.701000 -56.898000 482.035000
112.077000 -56.808000 481.276000
112.708000 -56.848000 481.608000
113.106000 -56.770000 480.949000
113.715000 -56.798000 481.191000
114.123000 -56.727000 480.582000
114.686000 -56.732000 480.629000
115.148000 -56.688000 480.254000
115.676000 -56.676000 480.157000
116.175000 -56.651000 479.941000
116.670000 -56.623000 479.709000
117.172000 -56.600000 479.511000
117.657000 -56.568000 479.241000
118.181000 -56.556000 479.136000
118.641000 -56.513000 478.771000
119.202000 -56.518000 478.817000
119.637000 -56.464000 478.358000
120.193000 -56.467000 478.386000
120.613000 -56.406000 477.871000
121.209000 -56.428000 478.057000
121.578000 -56.345000 477.354000
122.206000 -56.382000 477.662000
122.569000 -56.297000 476.942000
123.231000 -56.349000 477.385000
123.581000 -56.259000 476.620000
124.204000 -56.293000 476.912000
124.576000 -56.214000 476.242000
125.167000 -56.234000 476.409000
125.565000 -56.167000 475.843000
126.139000 -56.179000 475.947000
126.596000 -56.140000 475.610000
127.086000 -56.115000 475.403000
127.577000 -56.091000 475.197000
87.317000 -57.417000 491.210000
87.910000 -57.436000 491.370000
88.420000 -57.401000 491.071000
88.951000 -57.379000 490.889000
89.486000 -57.361000 490.735000
89.987000 -57.322000 490.395000
90.536000 -57.313000 490.316000
91.028000 -57.268000 489.933000
91.591000 -57.268000 489.935000
92.079000 -57.221000 489.538000
92.628000 -57.214000 489.473000
93.110000 -57.165000 489.052000
93.680000 -57.170000 489.096000
94.112000 -57.091000 488.424000
94.741000 -57.132000 488.775000
95.149000 -57.040000 487.988000
95.807000 -57.098000 488.483000
96.197000 -56.997000 487.616000
96.869000 -57.063000 488.186000
97.250000 -56.958000 487.285000
97.860000 -56.988000 487.538000
98.317000 -56.928000 487.026000
98.825000 -56.898000 486.774000
99.379000 -56.895000 486.748000
99.868000 -56.856000 486.408000
100.367000 -56.822000 486.119000
100.917000 -56.818000 486.083000
101.317000 -56.729000 485.325000
101.969000 -56.782000 485.776000
102.390000 -56.706000 485.125000
103.014000 -56.743000 485.441000
103.444000 -56.673000 484.847000
104.000000 -56.673000 484.842000
104.510000 -56.647000 484.623000
104.960000 -56.590000 484.132000
105.553000 -56.610000 484.304000
105.973000 -56.537000 483.682000
106.593000 -56.572000 483.978000
107.009000 -56.498000 483.345000
107.610000 -56.522000 483.551000
108.043000 -56.458000 483.006000
108.605000 -56.462000 483.036000
109.056000 -56.408000 482.579000
109.611000 -56.408000 482.581000
110.030000 -56.339000 481.992000
110.641000 -56.369000 482.243000
111.029000 -56.284000 481.521000
111.666000 -56.327000 481.886000
112.044000 -56.239000 481.132000
112.684000 -56.283000 481.507000
113.080000 -56.205000 480.838000
113.665000 -56.221000 480.977000
114.094000 -56.160000 480.459000
114.659000 -56.167000 480.516000
115.121000 -56.123000 480.142000
115.644000 -56.110000 480.025000
116.145000 -56.085000 479.817000
116.631000 -56.054000 479.550000
117.146000 -56.037000 479.405000
117.631000 -56.006000 479.138000
118.151000 -55.991000 479.013000
118.619000 -55.953000 478.682000
119.173000 -55.955000 478.702000
119.606000 -55.900000 478.233000
120.163000 -55.904000 478.264000
120.564000 -55.835000 477.679000
121.173000 -55.863000 477.915000
121.541000 -55.780000 477.206000
122.175000 -55.820000 477.545000
122.535000 -55.734000 476.810000
123.184000 -55.780000 477.204000
123.542000 -55.694000 476.472000
124.151000 -55.722000 476.709000
124.535000 -55.649000 476.083000
125.121000 -55.667000 476.235000
125.523000 -55.602000 475.685000
126.099000 -55.615000 475.797000
126.551000 -55.574000 475.441000
127.045000 -55.551000 475.249000
127.544000 -55.531000 475.073000
87.295000 -56.839000 491.089000
87.888000 -56.858000 491.251000
88.395000 -56.821000 490.931000
88.917000 -56.794000 490.704000
89.460000 -56.781000 490.591000
89.963000 -56.743000 490.261000
90.513000 -56.735000 490.190000
91.003000 -56.690000 489.800000
91.560000 -56.687000 489.773000
92.051000 -56.642000 489.391000
92.607000 -56.639000 489.359000
93.084000 -56.587000 488.912000
93.662000 -56.597000 488.998000
94.086000 -56.514000 488.285000
94.723000 -56.560000 488.678000
95.128000 -56.468000 487.881000
95.785000 -56.524000 488.371000
96.176000 -56.425000 487.512000
96.840000 -56.486000 488.036000
97.235000 -56.390000 487.211000
97.824000 -56.407000 487.357000
98.297000 -56.357000 486.928000
98.797000 -56.324000 486.636000
99.331000 -56.310000 486.515000
99.842000 -56.283000 486.284000
100.306000 -56.230000 485.827000
100.902000 -56.251000 486.011000
101.303000 -56.164000 485.256000
101.949000 -56.213000 485.681000
102.364000 -56.134000 485.002000
102.973000 -56.163000 485.251000
103.418000 -56.102000 484.723000
103.933000 -56.080000 484.528000
104.485000 -56.077000 484.509000
104.914000 -56.009000 483.920000
105.527000 -56.040000 484.186000
105.947000 -55.968000 483.565000
106.545000 -55.991000 483.759000
106.969000 -55.922000 483.163000
107.554000 -55.937000 483.299000
108.008000 -55.885000 482.850000
108.562000 -55.885000 482.848000
109.000000 -55.826000 482.333000
109.573000 -55.835000 482.414000
109.972000 -55.757000 481.739000
110.609000 -55.799000 482.102000
110.977000 -55.706000 481.298000
111.632000 -55.757000 481.740000
112.005000 -55.667000 480.964000
112.643000 -55.710000 481.332000
113.034000 -55.630000 480.643000
113.612000 -55.643000 480.753000
114.051000 -55.588000 480.280000
114.599000 -55.586000 480.265000
115.081000 -55.553000 479.976000
115.588000 -55.531000 479.789000
116.087000 -55.507000 479.577000
116.589000 -55.483000 479.378000
117.099000 -55.464000 479.210000
117.572000 -55.428000 478.897000
118.108000 -55.421000 478.838000
118.579000 -55.384000 478.522000
119.127000 -55.384000 478.516000
119.564000 -55.332000 478.067000
120.138000 -55.343000 478.164000
120.535000 -55.273000 477.564000
121.132000 -55.296000 477.756000
121.488000 -55.208000 476.998000
122.145000 -55.258000 477.426000
122.498000 -55.170000 476.666000
123.153000 -55.218000 477.083000
123.505000 -55.130000 476.327000
124.109000 -55.156000 476.547000
124.495000 -55.085000 475.933000
125.063000 -55.094000 476.014000
125.485000 -55.040000 475.542000
126.049000 -55.047000 475.609000
126.514000 -55.012000 475.305000
126.996000 -54.984000 475.066000
87.278000 -56.264000 490.991000
87.866000 -56.279000 491.128000
88.371000 -56.242000 490.799000
88.886000 -56.211000 490.533000
89.429000 -56.198000 490.420000
89.919000 -56.153000 490.023000
90.475000 -56.148000 489.984000
90.960000 -56.101000 489.567000
91.515000 -56.096000 489.528000
91.996000 -56.047000 489.100000
92.571000 -56.055000 489.170000
93.043000 -56.001000 488.696000
93.631000 -56.017000 488.840000
94.053000 -55.934000 488.114000
94.694000 -55.982000 488.528000
95.099000 -55.890000 487.731000
95.747000 -55.942000 488.180000
96.143000 -55.846000 487.345000
96.776000 -55.888000 487.715000
97.207000 -55.815000 487.070000
97.753000 -55.807000 487.004000
98.263000 -55.779000 486.758000
98.771000 -55.750000 486.509000
99.271000 -55.717000 486.220000
99.820000 -55.712000 486.177000
100.239000 -55.634000 485.498000
100.881000 -55.681000 485.907000
101.283000 -55.596000 485.160000
101.924000 -55.642000 485.562000
102.340000 -55.565000 484.890000
102.902000 -55.568000 484.917000
103.401000 -55.537000 484.644000
103.892000 -55.502000 484.340000
104.459000 -55.507000 484.390000
104.893000 -55.442000 483.823000
105.508000 -55.474000 484.097000
105.919000 -55.398000 483.434000
106.512000 -55.418000 483.608000
106.950000 -55.357000 483.080000
107.520000 -55.365000 483.146000
107.988000 -55.321000 482.760000
108.524000 -55.311000 482.679000
108.966000 -55.254000 482.179000
109.549000 -55.269000 482.310000
109.938000 -55.186000 481.586000
110.577000 -55.229000 481.963000
110.949000 -55.139000 481.174000
111.609000 -55.192000 481.638000
111.980000 -55.103000 480.858000
112.604000 -55.138000 481.164000
113.008000 -55.065000 480.534000
113.583000 -55.077000 480.632000
114.025000 -55.024000 480.169000
114.577000 -55.024000 480.173000
115.062000 -54.992000 479.896000
115.568000 -54.971000 479.707000
116.067000 -54.946000 479.492000
116.566000 -54.922000 479.282000
117.068000 -54.899000 479.083000
117.548000 -54.867000 478.799000
118.080000 -54.858000 478.726000
118.540000 -54.817000 478.366000
119.103000 -54.823000 478.418000
119.536000 -54.770000 477.953000
120.113000 -54.783000 478.067000
120.506000 -54.712000 477.450000
121.100000 -54.732000 477.627000
121.460000 -54.648000 476.891000
122.122000 -54.699000 477.335000
122.473000 -54.611000 476.570000
123.115000 -54.653000 476.938000
123.468000 -54.567000 476.184000
124.075000 -54.594000 476.415000
124.453000 -54.520000 475.772000
125.028000 -54.532000 475.878000
125.446000 -54.476000 475.393000
126.013000 -54.486000 475.473000
126.468000 -54.446000 475.130000
126.980000 -54.432000 475.006000
87.265000 -55.692000 490.916000
87.843000 -55.701000 491.000000
88.352000 -55.666000 490.695000
88.863000 -55.633000 490.403000
89.408000 -55.622000 490.303000
89.897000 -55.576000 489.900000
90.454000 -55.573000 489.873000
90.939000 -55.526000 489.456000
91.494000 -55.522000 489.420000
91.974000 -55.472000 488.983000
92.553000 -55.483000 489.076000
93.006000 -55.418000 488.503000
93.607000 -55.441000 488.712000
94.020000 -55.355000 487.946000
94.671000 -55.408000 488.414000
95.070000 -55.313000 487.582000
95.722000 -55.367000 488.052000
96.127000 -55.277000 487.263000
96.746000 -55.311000 487.561000
97.193000 -55.247000 486.998000
97.713000 -55.225000 486.802000
98.229000 -55.201000 486.591000
98.748000 -55.179000 486.395000
99.222000 -55.132000 485.980000
99.807000 -55.146000 486.110000
100.208000 -55.060000 485.352000
100.860000 -55.112000 485.809000
101.258000 -55.025000 485.039000
101.894000 -55.068000 485.418000
102.320000 -54.997000 484.794000
102.853000 -54.984000 484.682000
103.376000 -54.966000 484.525000
103.833000 -54.914000 484.062000
104.430000 -54.936000 484.252000
104.856000 -54.868000 483.654000
105.475000 -54.901000 483.946000
105.888000 -54.827000 483.294000
106.460000 -54.836000 483.374000
106.924000 -54.789000 482.961000
107.470000 -54.785000 482.923000
107.950000 -54.747000 482.588000
108.478000 -54.734000 482.475000
108.919000 -54.677000 481.972000
109.511000 -54.696000 482.144000
109.858000 -54.594000 481.239000
110.542000 -54.659000 481.810000
110.911000 -54.568000 481.012000
111.573000 -54.621000 481.484000
111.944000 -54.533000 480.705000
112.557000 -54.563000 480.966000
112.967000 -54.494000 480.359000
113.524000 -54.497000 480.384000
113.991000 -54.456000 480.025000
114.531000 -54.451000 479.978000
115.010000 -54.416000 479.677000
115.528000 -54.401000 479.541000
116.027000 -54.377000 479.330000
116.512000 -54.347000 479.061000
117.021000 -54.327000 478.891000
117.508000 -54.299000 478.637000
118.037000 -54.289000 478.551000
118.505000 -54.251000 478.222000
119.067000 -54.257000 478.273000
119.478000 -54.195000 477.721000
120.071000 -54.215000 477.898000
120.453000 -54.140000 477.237000
121.063000 -54.168000 477.484000
121.429000 -54.086000 476.768000
122.086000 -54.135000 477.193000
122.443000 -54.051000 476.451000
123.059000 -54.081000 476.720000
123.427000 -54.003000 476.028000
124.036000 -54.029000 476.265000
124.415000 -53.957000 475.626000
125.009000 -53.977000 475.806000
125.423000 -53.920000 475.304000
125.992000 -53.931000 475.394000
126.441000 -53.889000 475.028000
126.953000 -53.875000 474.903000
87.249000 -55.118000 490.829000
87.794000 -55.107000 490.726000
88.324000 -55.085000 490.537000
88.832000 -55.051000 490.231000
89.381000 -55.043000 490.158000
89.868000 -54.996000 489.746000
90.426000 -54.993000 489.719000
90.909000 -54.945000 489.291000
91.466000 -54.943000 489.267000
91.940000 -54.890000 488.801000
92.524000 -54.904000 488.919000
92.970000 -54.836000 488.316000
93.580000 -54.865000 488.573000
93.995000 -54.780000 487.815000
94.641000 -54.829000 488.259000
95.042000 -54.737000 487.436000
95.681000 -54.783000 487.845000
96.102000 -54.704000 487.138000
96.693000 -54.722000 487.299000
97.162000 -54.670000 486.841000
97.687000 -54.651000 486.672000
98.179000 -54.614000 486.344000
98.722000 -54.606000 486.267000
99.162000 -54.540000 485.685000
99.780000 -54.573000 485.979000
100.196000 -54.496000 485.291000
100.831000 -54.538000 485.666000
101.237000 -54.457000 484.939000
101.857000 -54.490000 485.241000
102.299000 -54.429000 484.697000
102.815000 -54.408000 484.505000
103.358000 -54.401000 484.442000
103.790000 -54.336000 483.861000
104.403000 -54.366000 484.129000
104.834000 -54.301000 483.552000
105.431000 -54.323000 483.746000
105.865000 -54.260000 483.191000
106.420000 -54.260000 483.189000
106.895000 -54.220000 482.829000
107.430000 -54.210000 482.743000
107.913000 -54.174000 482.425000
108.456000 -54.169000 482.376000
108.883000 -54.106000 481.814000
109.487000 -54.131000 482.035000
109.833000 -54.029000 481.128000
110.525000 -54.097000 481.738000
110.895000 -54.008000 480.940000
111.540000 -54.053000 481.341000
111.922000 -53.970000 480.607000
112.527000 -53.996000 480.836000
112.941000 -53.930000 480.247000
113.494000 -53.931000 480.257000
113.969000 -53.894000 479.932000
114.489000 -53.880000 479.803000
114.979000 -53.851000 479.548000
115.500000 -53.837000 479.425000
115.995000 -53.812000 479.195000
116.482000 -53.782000 478.935000
116.987000 -53.762000 478.754000
117.472000 -53.732000 478.487000
118.014000 -53.729000 478.460000
118.478000 -53.690000 478.114000
119.033000 -53.693000 478.137000
119.450000 -53.634000 477.610000
120.042000 -53.653000 477.784000
120.420000 -53.577000 477.107000
121.036000 -53.607000 477.375000
121.391000 -53.522000 476.620000
122.055000 -53.574000 477.076000
122.411000 -53.490000 476.327000
123.029000 -53.521000 476.603000
123.395000 -53.442000 475.903000
123.986000 -53.461000 476.077000
124.380000 -53.396000 475.493000
124.954000 -53.407000 475.596000
125.390000 -53.361000 475.179000
125.941000 -53.363000 475.202000
126.401000 -53.327000 474.880000
126.898000 -53.307000 474.699000
127.391000 -53.285000 474.503000
127.835000 -53.243000 474.132000
88.300000 -54.507000 490.407000
88.798000 -54.467000 490.044000
89.355000 -54.464000 490.017000
89.847000 -54.421000 489.632000
90.406000 -54.419000 489.614000
90.890000 -54.372000 489.191000
91.449000 -54.371000 489.177000
91.922000 -54.318000 488.705000
92.507000 -54.332000 488.831000
92.945000 -54.261000 488.185000
93.562000 -54.293000 488.478000
93.979000 -54.210000 487.732000
94.620000 -54.256000 488.147000
95.024000 -54.167000 487.347000
95.656000 -54.208000 487.716000
96.086000 -54.135000 487.058000
96.654000 -54.140000 487.100000
97.136000 -54.097000 486.711000
97.665000 -54.080000 486.564000
98.131000 -54.029000 486.103000
98.696000 -54.033000 486.140000
99.121000 -53.961000 485.487000
99.765000 -54.007000 485.905000
100.173000 -53.927000 485.182000
100.812000 -53.971000 485.576000
101.216000 -53.889000 484.840000
101.796000 -53.901000 484.950000
102.275000 -53.860000 484.580000
102.769000 -53.827000 484.288000
103.338000 -53.834000 484.350000
103.769000 -53.769000 483.767000
104.378000 -53.797000 484.012000
104.808000 -53.732000 483.431000
105.382000 -53.742000 483.522000
105.839000 -53.692000 483.072000
106.358000 -53.674000 482.908000
106.870000 -53.653000 482.718000
107.384000 -53.633000 482.538000
107.861000 -53.594000 482.191000
108.419000 -53.596000 482.210000
108.807000 -53.515000 481.477000
109.457000 -53.562000 481.903000
109.807000 -53.464000 481.015000
110.495000 -53.529000 481.607000
110.858000 -53.438000 480.783000
111.503000 -53.482000 481.180000
111.884000 -53.401000 480.448000
112.471000 -53.417000 480.596000
112.905000 -53.362000 480.097000
113.449000 -53.358000 480.065000
113.932000 -53.326000 479.777000
114.455000 -53.313000 479.661000
114.943000 -53.284000 479.398000
115.461000 -53.269000 479.266000
115.944000 -53.238000 478.984000
116.437000 -53.212000 478.750000
116.932000 -53.187000 478.527000
117.421000 -53.160000 478.279000
117.972000 -53.161000 478.288000
118.421000 -53.116000 477.884000
118.995000 -53.127000 477.984000
119.411000 -53.068000 477.453000
120.000000 -53.086000 477.618000
120.378000 -53.011000 476.941000
120.989000 -53.038000 477.189000
121.355000 -52.959000 476.478000
122.014000 -53.008000 476.913000
122.360000 -52.921000 476.130000
122.993000 -52.958000 476.464000
123.355000 -52.878000 475.750000
123.961000 -52.904000 475.979000
124.340000 -52.833000 475.340000
124.919000 -52.847000 475.465000
125.363000 -52.804000 475.077000
125.910000 -52.804000 475.082000
126.365000 -52.767000 474.743000
126.862000 -52.746000 474.563000
127.358000 -52.726000 474.381000
88.274000 -53.928000 490.262000
88.763000 -53.883000 489.852000
89.321000 -53.881000 489.831000
89.805000 -53.833000 489.399000
90.370000 -53.836000 489.417000
90.849000 -53.786000 488.971000
91.417000 -53.790000 489.007000
91.880000 -53.733000 488.483000
92.475000 -53.752000 488.661000
92.904000 -53.676000 487.966000
93.528000 -53.713000 488.303000
93.942000 -53.629000 487.539000
94.572000 -53.669000 487.899000
94.989000 -53.588000 487.167000
95.594000 -53.614000 487.400000
96.054000 -53.558000 486.894000
96.597000 -53.549000 486.811000
97.086000 -53.511000 486.464000
97.630000 -53.503000 486.391000
98.081000 -53.444000 485.859000
98.674000 -53.463000 486.031000
99.085000 -53.383000 485.307000
99.739000 -53.435000 485.779000
100.138000 -53.351000 485.013000
100.789000 -53.401000 485.463000
101.201000 -53.324000 484.769000
101.747000 -53.319000 484.718000
102.246000 -53.289000 484.446000
102.695000 -53.233000 483.937000
103.315000 -53.266000 484.239000
103.748000 -53.203000 483.664000
104.353000 -53.228000 483.899000
104.786000 -53.166000 483.332000
105.334000 -53.163000 483.301000
105.809000 -53.122000 482.934000
106.327000 -53.104000 482.770000
106.852000 -53.089000 482.633000
107.365000 -53.069000 482.451000
107.807000 -53.014000 481.949000
108.397000 -53.032000 482.115000
108.773000 -52.946000 481.328000
109.427000 -52.995000 481.775000
109.778000 -52.897000 480.887000
110.464000 -52.961000 481.469000
110.840000 -52.877000 480.703000
111.471000 -52.914000 481.043000
111.853000 -52.834000 480.314000
112.439000 -52.850000 480.461000
112.883000 -52.800000 480.001000
113.422000 -52.794000 479.949000
113.902000 -52.761000 479.649000
114.435000 -52.753000 479.576000
114.920000 -52.723000 479.302000
115.428000 -52.704000 479.128000
115.919000 -52.677000 478.882000
116.416000 -52.653000 478.665000
116.906000 -52.626000 478.421000
117.396000 -52.599000 478.178000
117.950000 -52.602000 478.199000
118.396000 -52.556000 477.784000
118.967000 -52.565000 477.871000
119.366000 -52.500000 477.275000
119.972000 -52.525000 477.503000
120.349000 -52.450000 476.824000
120.953000 -52.475000 477.050000
121.324000 -52.399000 476.357000
121.967000 -52.440000 476.731000
122.325000 -52.359000 475.995000
122.941000 -52.388000 476.262000
123.327000 -52.320000 475.641000
123.926000 -52.342000 475.843000
124.309000 -52.274000 475.220000
124.884000 -52.286000 475.333000
125.323000 -52.242000 474.927000
125.867000 -52.241000 474.922000
126.325000 -52.205000 474.594000
126.828000 -52.188000 474.438000
127.316000 -52.164000 474.225000
88.740000 -53.307000 489.726000
89.301000 -53.306000 489.720000
89.783000 -53.258000 489.279000
90.349000 -53.261000 489.306000
90.829000 -53.213000 488.862000
91.394000 -53.216000 488.885000
91.855000 -53.158000 488.351000
92.452000 -53.178000 488.543000
92.884000 -53.104000 487.862000
93.512000 -53.143000 488.219000
93.925000 -53.059000 487.449000
94.551000 -53.097000 487.795000
94.972000 -53.019000 487.079000
95.569000 -53.040000 487.270000
96.036000 -52.989000 486.805000
96.577000 -52.979000 486.710000
97.060000 -52.938000 486.330000
97.617000 -52.937000 486.325000
98.057000 -52.873000 485.740000
98.661000 -52.898000 485.964000
99.063000 -52.814000 485.200000
99.715000 -52.865000 485.663000
100.115000 -52.782000 484.902000
100.707000 -52.800000 485.068000
101.186000 -52.759000 484.694000
101.716000 -52.746000 484.567000
102.230000 -52.724000 484.368000
102.674000 -52.666000 483.840000
103.288000 -52.696000 484.116000
103.722000 -52.634000 483.544000
104.304000 -52.648000 483.671000
104.752000 -52.594000 483.175000
105.283000 -52.582000 483.066000
105.778000 -52.552000 482.790000
106.278000 -52.526000 482.548000
106.808000 -52.514000 482.439000
107.333000 -52.500000 482.307000
107.764000 -52.440000 481.759000
108.372000 -52.466000 482.001000
108.740000 -52.377000 481.179000
109.396000 -52.427000 481.636000
109.760000 -52.336000 480.807000
110.430000 -52.392000 481.322000
110.811000 -52.312000 480.579000
111.403000 -52.330000 480.751000
111.812000 -52.264000 480.139000
112.387000 -52.274000 480.236000
112.841000 -52.229000 479.823000
113.361000 -52.215000 479.694000
113.855000 -52.189000 479.452000
114.397000 -52.185000 479.417000
114.867000 -52.148000 479.080000
115.381000 -52.132000 478.931000
115.865000 -52.103000 478.661000
116.358000 -52.077000 478.427000
116.862000 -52.057000 478.241000
117.354000 -52.031000 478.007000
117.909000 -52.034000 478.032000
118.355000 -51.989000 477.619000
118.915000 -51.994000 477.663000
119.316000 -51.930000 477.072000
119.925000 -51.956000 477.317000
120.290000 -51.878000 476.593000
120.909000 -51.908000 476.874000
121.268000 -51.828000 476.136000
121.924000 -51.874000 476.564000
122.280000 -51.793000 475.816000
122.895000 -51.822000 476.085000
123.288000 -51.758000 475.491000
123.872000 -51.774000 475.637000
124.273000 -51.713000 475.082000
124.833000 -51.719000 475.136000
125.289000 -51.682000 474.797000
125.814000 -51.674000 474.722000
126.291000 -51.646000 474.467000
126.783000 -51.625000 474.270000
127.287000 -51.608000 474.118000
88.712000 -52.728000 489.572000
89.272000 -52.727000 489.557000
89.754000 -52.680000 489.121000
90.318000 -52.681000 489.137000
90.797000 -52.633000 488.692000
91.360000 -52.634000 488.700000
91.818000 -52.575000 488.154000
92.419000 -52.599000 488.368000
92.855000 -52.528000 487.708000
93.473000 -52.561000 488.015000
93.897000 -52.484000 487.303000
94.514000 -52.516000 487.604000
94.943000 -52.444000 486.931000
95.522000 -52.455000 487.032000
95.997000 -52.409000 486.604000
96.550000 -52.406000 486.576000
97.013000 -52.354000 486.094000
97.596000 -52.367000 486.220000
98.014000 -52.292000 485.526000
98.638000 -52.328000 485.854000
99.039000 -52.245000 485.084000
99.685000 -52.291000 485.517000
100.093000 -52.214000 484.794000
100.636000 -52.206000 484.728000
101.164000 -52.192000 484.590000
101.669000 -52.166000 484.348000
102.211000 -52.158000 484.277000
102.656000 -52.102000 483.756000
103.269000 -52.131000 484.024000
103.691000 -52.064000 483.402000
104.254000 -52.068000 483.437000
104.731000 -52.029000 483.076000
105.240000 -52.006000 482.866000
105.762000 -51.990000 482.718000
106.256000 -51.961000 482.447000
106.760000 -51.937000 482.222000
107.314000 -51.937000 482.221000
107.730000 -51.870000 481.607000
108.354000 -51.904000 481.921000
108.708000 -51.809000 481.041000
109.374000 -51.863000 481.537000
109.737000 -51.773000 480.707000
110.405000 -51.828000 481.214000
110.779000 -51.744000 480.437000
111.376000 -51.766000 480.636000
111.794000 -51.704000 480.058000
112.358000 -51.710000 480.113000
112.812000 -51.665000 479.702000
113.342000 -51.655000 479.611000
113.830000 -51.627000 479.349000
114.360000 -51.618000 479.262000
114.836000 -51.584000 478.952000
115.355000 -51.571000 478.825000
115.834000 -51.539000 478.533000
116.331000 -51.516000 478.316000
116.835000 -51.496000 478.129000
117.311000 -51.464000 477.832000
117.889000 -51.477000 477.952000
118.331000 -51.430000 477.521000
118.894000 -51.437000 477.580000
119.299000 -51.375000 477.006000
119.890000 -51.394000 477.180000
120.258000 -51.317000 476.466000
120.879000 -51.348000 476.756000
121.236000 -51.268000 476.011000
121.887000 -51.311000 476.417000
122.239000 -51.230000 475.657000
122.872000 -51.266000 475.995000
123.249000 -51.195000 475.340000
123.837000 -51.213000 475.503000
124.243000 -51.155000 474.966000
124.805000 -51.162000 475.031000
125.261000 -51.126000 474.693000
125.780000 -51.115000 474.592000
126.256000 -51.087000 474.336000
126.750000 -51.067000 474.145000
127.256000 -51.051000 474.000000
88.683000 -52.149000 489.409000
89.248000 -52.151000 489.428000
89.726000 -52.102000 488.972000
90.297000 -52.107000 489.020000
90.775000 -52.060000 488.574000
91.340000 -52.062000 488.592000
91.798000 -52.004000 488.047000
92.402000 -52.028000 488.276000
92.838000 -51.958000 487.621000
93.449000 -51.987000 487.887000
93.879000 -51.915000 487.212000
94.486000 -51.941000 487.456000
94.926000 -51.875000 486.842000
95.496000 -51.881000 486.898000
95.964000 -51.832000 486.436000
96.530000 -51.836000 486.477000
96.977000 -51.776000 485.916000
97.569000 -51.795000 486.085000
97.976000 -51.715000 485.335000
98.615000 -51.757000 485.737000
99.023000 -51.680000 485.006000
99.665000 -51.724000 485.421000
100.075000 -51.648000 484.706000
100.624000 -51.644000 484.668000
101.140000 -51.623000 484.477000
101.593000 -51.570000 483.982000
102.189000 -51.591000 484.175000
102.630000 -51.533000 483.633000
103.244000 -51.563000 483.909000
103.679000 -51.502000 483.343000
104.214000 -51.492000 483.250000
104.704000 -51.461000 482.954000
105.186000 -51.425000 482.620000
105.727000 -51.419000 482.560000
106.231000 -51.395000 482.333000
106.713000 -51.360000 482.006000
107.283000 -51.368000 482.084000
107.682000 -51.294000 481.392000
108.321000 -51.335000 481.775000
108.683000 -51.245000 480.930000
109.348000 -51.298000 481.424000
109.710000 -51.209000 480.591000
110.356000 -51.252000 480.998000
110.747000 -51.178000 480.302000
111.337000 -51.196000 480.464000
111.768000 -51.141000 479.949000
112.316000 -51.139000 479.934000
112.775000 -51.098000 479.544000
113.310000 -51.091000 479.479000
113.783000 -51.056000 479.150000
114.319000 -51.049000 479.089000
114.786000 -51.012000 478.745000
115.306000 -50.999000 478.622000
115.792000 -50.971000 478.360000
116.286000 -50.947000 478.132000
116.803000 -50.933000 478.000000
117.274000 -50.899000 477.682000
117.840000 -50.907000 477.754000
118.261000 -50.852000 477.238000
118.843000 -50.866000 477.375000
119.245000 -50.804000 476.792000
119.839000 -50.824000 476.977000
120.208000 -50.749000 476.269000
120.835000 -50.782000 476.584000
121.196000 -50.704000 475.853000
121.827000 -50.739000 476.184000
122.198000 -50.667000 475.501000
122.833000 -50.703000 475.842000
123.208000 -50.633000 475.182000
123.798000 -50.651000 475.351000
124.201000 -50.593000 474.807000
124.767000 -50.601000 474.887000
125.221000 -50.564000 474.541000
125.744000 -50.556000 474.459000
126.215000 -50.526000 474.180000
126.707000 -50.505000 473.984000
127.206000 -50.487000 473.816000
89.218000 -51.571000 489.263000
89.699000 -51.525000 488.824000
90.257000 -51.523000 488.803000
90.730000 -51.473000 488.329000
91.311000 -51.484000 488.437000
91.763000 -51.423000 487.860000
92.369000 -51.449000 488.100000
92.799000 -51.377000 487.416000
93.410000 -51.405000 487.683000
93.844000 -51.336000 487.030000
94.431000 -51.351000 487.176000
94.886000 -51.295000 486.640000
95.452000 -51.298000 486.674000
95.908000 -51.243000 486.152000
96.491000 -51.257000 486.280000
96.919000 -51.188000 485.627000
97.541000 -51.222000 485.947000
97.948000 -51.143000 485.197000
98.593000 -51.189000 485.631000
99.003000 -51.112000 484.907000
99.631000 -51.149000 485.253000
100.055000 -51.081000 484.609000
100.590000 -51.070000 484.507000
101.121000 -51.057000 484.384000
101.560000 -50.999000 483.829000
102.169000 -51.025000 484.080000
102.610000 -50.968000 483.536000
103.198000 -50.984000 483.690000
103.657000 -50.937000 483.244000
104.173000 -50.918000 483.061000
104.683000 -50.896000 482.854000
105.155000 -50.856000 482.476000
105.695000 -50.849000 482.412000
106.212000 -50.832000 482.245000
106.677000 -50.789000 481.844000
107.262000 -50.804000 481.987000
107.627000 -50.716000 481.145000
108.297000 -50.771000 481.666000
108.663000 -50.683000 480.838000
109.331000 -50.737000 481.349000
109.692000 -50.649000 480.510000
110.327000 -50.687000 480.873000
110.721000 -50.615000 480.188000
111.307000 -50.630000 480.335000
111.739000 -50.577000 479.825000
112.281000 -50.572000 479.785000
112.744000 -50.533000 479.409000
113.280000 -50.526000 479.348000
113.761000 -50.495000 479.056000
114.297000 -50.489000 478.996000
114.750000 -50.447000 478.594000
115.280000 -50.438000 478.513000
115.767000 -50.411000 478.254000
116.244000 -50.380000 477.956000
116.779000 -50.374000 477.902000
117.251000 -50.341000 477.589000
117.810000 -50.345000 477.630000
118.230000 -50.291000 477.114000
118.813000 -50.306000 477.256000
119.201000 -50.238000 476.613000
119.809000 -50.264000 476.858000
120.168000 -50.185000 476.108000
120.815000 -50.226000 476.503000
121.174000 -50.149000 475.768000
121.803000 -50.183000 476.089000
122.170000 -50.109000 475.391000
122.788000 -50.139000 475.670000
123.177000 -50.074000 475.061000
123.744000 -50.083000 475.146000
124.166000 -50.033000 474.672000
124.717000 -50.036000 474.698000
125.189000 -50.007000 474.419000
125.706000 -49.995000 474.313000
126.174000 -49.965000 474.025000
126.665000 -49.944000 473.826000
127.155000 -49.923000 473.625000
89.678000 -50.952000 488.706000
90.234000 -50.949000 488.683000
90.709000 -50.901000 488.219000
91.294000 -50.914000 488.345000
91.747000 -50.854000 487.774000
92.344000 -50.875000 487.971000
92.776000 -50.805000 487.298000
93.382000 -50.830000 487.539000
93.822000 -50.765000 486.918000
94.400000 -50.775000 487.015000
94.852000 -50.718000 486.465000
95.435000 -50.731000 486.588000
95.881000 -50.671000 486.016000
96.474000 -50.689000 486.193000
96.885000 -50.613000 485.457000
97.521000 -50.653000 485.847000
97.929000 -50.576000 485.102000
98.574000 -50.621000 485.539000
98.985000 -50.546000 484.818000
99.589000 -50.570000 485.049000
100.039000 -50.516000 484.531000
100.526000 -50.481000 484.197000
101.098000 -50.489000 484.273000
101.544000 -50.435000 483.749000
102.150000 -50.460000 483.991000
102.588000 -50.402000 483.434000
103.134000 -50.398000 483.393000
103.632000 -50.370000 483.125000
104.125000 -50.340000 482.839000
104.650000 -50.326000 482.702000
105.134000 -50.292000 482.382000
105.647000 -50.273000 482.197000
106.189000 -50.267000 482.143000
106.608000 -50.204000 481.533000
107.226000 -50.234000 481.828000
107.598000 -50.150000 481.014000
108.269000 -50.204000 481.541000
108.631000 -50.117000 480.699000
109.279000 -50.161000 481.123000
109.659000 -50.082000 480.366000
110.280000 -50.114000 480.669000
110.688000 -50.048000 480.045000
111.249000 -50.053000 480.085000
111.695000 -50.006000 479.635000
112.238000 -50.002000 479.599000
112.688000 -49.958000 479.173000
113.243000 -49.960000 479.193000
113.716000 -49.926000 478.867000
114.258000 -49.922000 478.833000
114.705000 -49.877000 478.404000
115.236000 -49.870000 478.330000
115.722000 -49.842000 478.067000
116.195000 -49.810000 477.755000
116.736000 -49.806000 477.723000
117.193000 -49.768000 477.350000
117.764000 -49.777000 477.445000
118.182000 -49.722000 476.918000
118.763000 -49.737000 477.055000
119.157000 -49.673000 476.440000
119.767000 -49.699000 476.690000
120.128000 -49.622000 475.952000
120.778000 -49.664000 476.358000
121.135000 -49.586000 475.611000
121.763000 -49.620000 475.932000
122.118000 -49.542000 475.188000
122.739000 -49.572000 475.479000
123.130000 -49.510000 474.881000
123.690000 -49.516000 474.938000
124.122000 -49.471000 474.506000
124.680000 -49.476000 474.557000
125.150000 -49.446000 474.270000
125.646000 -49.427000 474.088000
126.125000 -49.402000 473.841000
126.606000 -49.377000 473.605000
127.101000 -49.358000 473.424000
89.648000 -50.374000 488.548000
90.204000 -50.371000 488.519000
90.676000 -50.322000 488.042000
91.255000 -50.332000 488.140000
91.707000 -50.272000 487.560000
92.303000 -50.292000 487.751000
92.745000 -50.228000 487.131000
93.338000 -50.246000 487.311000
93.790000 -50.189000 486.750000
94.355000 -50.192000 486.780000
94.808000 -50.136000 486.240000
95.404000 -50.156000 486.429000
95.835000 -50.089000 485.784000
96.448000 -50.118000 486.062000
96.850000 -50.037000 485.280000
97.496000 -50.083000 485.722000
97.900000 -50.004000 484.959000
98.553000 -50.053000 485.436000
98.961000 -49.978000 484.703000
99.528000 -49.983000 484.752000
100.016000 -49.948000 484.419000
100.468000 -49.897000 483.919000
101.073000 -49.921000 484.155000
101.521000 -49.868000 483.640000
102.120000 -49.890000 483.849000
102.568000 -49.837000 483.338000
103.072000 -49.812000 483.101000
103.599000 -49.799000 482.974000
104.087000 -49.767000 482.665000
104.629000 -49.761000 482.606000
105.110000 -49.727000 482.272000
105.606000 -49.700000 482.009000
106.165000 -49.702000 482.031000
106.565000 -49.631000 481.339000
107.205000 -49.671000 481.732000
107.575000 -49.587000 480.914000
108.244000 -49.640000 481.431000
108.598000 -49.550000 480.553000
109.256000 -49.598000 481.018000
109.642000 -49.523000 480.292000
110.251000 -49.549000 480.542000
110.658000 -49.484000 479.912000
111.221000 -49.489000 479.965000
111.667000 -49.443000 479.515000
112.199000 -49.434000 479.436000
112.656000 -49.393000 479.037000
113.226000 -49.402000 479.123000
113.697000 -49.368000 478.788000
114.226000 -49.359000 478.701000
114.684000 -49.319000 478.320000
115.212000 -49.310000 478.230000
115.697000 -49.283000 477.964000
116.173000 -49.252000 477.668000
116.718000 -49.250000 477.650000
117.171000 -49.210000 477.261000
117.736000 -49.217000 477.330000
118.138000 -49.157000 476.742000
118.736000 -49.178000 476.944000
119.131000 -49.115000 476.334000
119.734000 -49.138000 476.557000
120.104000 -49.065000 475.854000
120.747000 -49.105000 476.238000
121.111000 -49.031000 475.519000
121.728000 -49.059000 475.794000
122.086000 -48.984000 475.065000
122.700000 -49.011000 475.330000
123.084000 -48.947000 474.705000
123.655000 -48.957000 474.802000
124.088000 -48.913000 474.375000
124.651000 -48.920000 474.445000
125.102000 -48.883000 474.090000
125.608000 -48.868000 473.944000
126.082000 -48.841000 473.680000
126.575000 -48.822000 473.491000
127.073000 -48.804000 473.320000
127.509000 -48.763000 472.921000
128.066000 -48.768000 472.971000
128.595000 -48.763000 472.923000
89.622000 -49.798000 488.404000
90.184000 -49.799000 488.411000
90.656000 -49.750000 487.930000
91.232000 -49.759000 488.014000
91.683000 -49.699000 487.433000
92.279000 -49.719000 487.626000
92.724000 -49.658000 487.023000
93.315000 -49.675000 487.190000
93.764000 -49.616000 486.614000
94.341000 -49.626000 486.709000
94.786000 -49.566000 486.125000
95.385000 -49.587000 486.332000
95.804000 -49.515000 485.626000
96.428000 -49.549000 485.960000
96.830000 -49.470000 485.180000
97.466000 -49.509000 485.570000
97.875000 -49.435000 484.838000
98.514000 -49.476000 485.240000
98.945000 -49.413000 484.623000
99.482000 -49.403000 484.527000
99.992000 -49.381000 484.306000
100.449000 -49.331000 483.825000
101.054000 -49.356000 484.063000
101.500000 -49.303000 483.542000
102.054000 -49.302000 483.535000
102.536000 -49.267000 483.188000
103.022000 -49.234000 482.866000
103.576000 -49.233000 482.864000
104.051000 -49.196000 482.496000
104.592000 -49.190000 482.438000
105.085000 -49.161000 482.157000
105.551000 -49.121000 481.758000
106.142000 -49.138000 481.930000
106.524000 -49.059000 481.152000
107.174000 -49.104000 481.591000
107.544000 -49.020000 480.774000
108.206000 -49.070000 481.264000
108.561000 -48.981000 480.388000
109.211000 -49.025000 480.823000
109.606000 -48.955000 480.132000
110.177000 -48.964000 480.219000
110.612000 -48.913000 479.716000
111.175000 -48.918000 479.768000
111.621000 -48.872000 479.317000
112.170000 -48.871000 479.312000
112.623000 -48.829000 478.898000
113.194000 -48.838000 478.984000
113.649000 -48.797000 478.586000
114.187000 -48.792000 478.538000
114.648000 -48.755000 478.169000
115.154000 -48.736000 477.989000
115.656000 -48.717000 477.797000
116.126000 -48.684000 477.472000
116.666000 -48.680000 477.439000
117.125000 -48.643000 477.075000
117.690000 -48.650000 477.143000
118.097000 -48.593000 476.578000
118.696000 -48.614000 476.784000
119.079000 -48.546000 476.126000
119.693000 -48.574000 476.394000
120.067000 -48.504000 475.709000
120.707000 -48.542000 476.080000
121.071000 -48.469000 475.363000
121.681000 -48.494000 475.612000
122.054000 -48.425000 474.939000
122.642000 -48.442000 475.102000
123.036000 -48.383000 474.519000
123.615000 -48.396000 474.650000
124.059000 -48.357000 474.264000
124.625000 -48.365000 474.347000
125.104000 -48.340000 474.098000
125.625000 -48.330000 474.007000
126.120000 -48.312000 473.822000
126.632000 -48.299000 473.703000
127.152000 -48.290000 473.614000
127.612000 -48.259000 473.303000
128.217000 -48.282000 473.532000
128.736000 -48.272000 473.439000
89.592000 -49.221000 488.238000
90.144000 -49.217000 488.196000
90.609000 -49.165000 487.680000
91.195000 -49.178000 487.818000
91.642000 -49.118000 487.215000
92.239000 -49.138000 487.414000
92.681000 -49.075000 486.794000
93.266000 -49.089000 486.935000
93.707000 -49.028000 486.322000
94.304000 -49.047000 486.517000
94.743000 -48.986000 485.904000
95.350000 -49.011000 486.157000
95.759000 -48.935000 485.399000
96.394000 -48.974000 485.790000
96.805000 -48.900000 485.054000
97.438000 -48.938000 485.434000
97.850000 -48.865000 484.713000
98.467000 -48.896000 485.013000
98.919000 -48.844000 484.499000
99.421000 -48.817000 484.231000
99.966000 -48.812000 484.181000
100.424000 -48.764000 483.708000
101.028000 -48.787000 483.939000
101.469000 -48.733000 483.394000
102.004000 -48.723000 483.299000
102.515000 -48.702000 483.089000
102.971000 -48.655000 482.630000
103.553000 -48.668000 482.759000
104.023000 -48.629000 482.368000
104.534000 -48.609000 482.171000
105.062000 -48.597000 482.051000
105.511000 -48.549000 481.573000
106.118000 -48.574000 481.819000
106.500000 -48.496000 481.048000
107.147000 -48.539000 481.473000
107.522000 -48.458000 480.676000
108.184000 -48.508000 481.167000
108.541000 -48.421000 480.301000
109.185000 -48.461000 480.706000
109.585000 -48.394000 480.041000
110.152000 -48.401000 480.109000
110.585000 -48.350000 479.596000
111.140000 -48.352000 479.617000
111.593000 -48.309000 479.196000
112.151000 -48.313000 479.230000
112.602000 -48.270000 478.808000
113.158000 -48.273000 478.832000
113.616000 -48.234000 478.445000
114.161000 -48.232000 478.428000
114.623000 -48.195000 478.066000
115.129000 -48.177000 477.886000
115.635000 -48.160000 477.711000
116.093000 -48.122000 477.337000
116.650000 -48.126000 477.375000
117.105000 -48.087000 476.995000
117.661000 -48.090000 477.026000
118.072000 -48.035000 476.476000
118.661000 -48.052000 476.645000
119.049000 -47.988000 476.006000
119.666000 -48.016000 476.286000
120.028000 -47.942000 475.553000
120.682000 -47.985000 475.982000
121.035000 -47.908000 475.218000
121.657000 -47.938000 475.517000
122.020000 -47.867000 474.806000
122.607000 -47.883000 474.968000
123.038000 -47.839000 474.527000
123.608000 -47.848000 474.623000
124.058000 -47.812000 474.260000
124.636000 -47.825000 474.388000
125.178000 -47.823000 474.376000
125.718000 -47.822000 474.359000
126.277000 -47.827000 474.413000
126.768000 -47.807000 474.211000
127.376000 -47.831000 474.450000
127.861000 -47.808000 474.228000
128.478000 -47.835000 474.496000
128.988000 -47.822000 474.366000
129.576000 -47.838000 474.523000
91.175000 -48.608000 487.713000
91.621000 -48.547000 487.106000
