77.361000 -9.711000 503.506000
77.842000 -9.699000 502.874000
78.458000 -9.703000 503.126000
78.958000 -9.694000 502.631000
79.557000 -9.696000 502.765000
80.128000 -9.696000 502.730000
80.703000 -9.695000 502.711000
81.341000 -9.703000 503.089000
81.971000 -9.709000 503.409000
82.601000 -9.715000 503.730000
83.212000 -9.719000 503.927000
77.826000 -9.119000 502.776000
78.444000 -9.124000 503.037000
78.965000 -9.117000 502.672000
79.607000 -9.125000 503.084000
80.201000 -9.127000 503.186000
80.789000 -9.128000 503.250000
81.465000 -9.139000 503.858000
82.059000 -9.141000 503.953000
82.746000 -9.153000 504.610000
83.339000 -9.154000 504.694000
78.474000 -8.550000 503.229000
79.102000 -8.555000 503.547000
79.705000 -8.558000 503.702000
80.352000 -8.565000 504.131000
80.943000 -8.566000 504.212000
81.629000 -8.578000 504.870000
82.227000 -8.579000 504.981000
82.893000 -8.588000 505.506000
83.515000 -8.593000 505.760000
84.171000 -8.600000 506.210000
56.130000 -7.250000 457.673000
56.632000 -7.247000 457.486000
57.119000 -7.242000 457.175000
57.628000 -7.240000 457.048000
58.114000 -7.235000 456.745000
58.638000 -7.235000 456.746000
59.147000 -7.233000 456.620000
59.673000 -7.234000 456.638000
60.171000 -7.231000 456.434000
60.708000 -7.232000 456.537000
61.227000 -7.231000 456.493000
61.765000 -7.233000 456.595000
62.280000 -7.232000 456.531000
62.819000 -7.234000 456.633000
63.368000 -7.237000 456.811000
63.928000 -7.241000 457.065000
64.474000 -7.243000 457.216000
78.550000 -7.980000 503.717000
79.256000 -7.992000 504.525000
79.800000 -7.989000 504.306000
80.483000 -7.999000 504.954000
81.108000 -8.004000 505.238000
81.765000 -8.011000 505.714000
82.389000 -8.015000 505.979000
83.033000 -8.022000 506.365000
83.653000 -8.025000 506.596000
84.324000 -8.034000 507.135000
56.017000 -6.711000 456.750000
56.520000 -6.709000 456.577000
57.004000 -6.704000 456.257000
57.517000 -6.703000 456.171000
58.010000 -6.699000 455.928000
58.526000 -6.698000 455.869000
59.034000 -6.696000 455.752000
59.551000 -6.696000 455.699000
60.060000 -6.694000 455.593000
60.593000 -6.695000 455.667000
61.104000 -6.694000 455.578000
61.634000 -6.695000 455.626000
62.160000 -6.695000 455.647000
62.689000 -6.696000 455.691000
63.237000 -6.698000 455.871000
63.779000 -6.700000 455.999000
64.341000 -6.704000 456.276000
79.990000 -7.427000 505.501000
80.640000 -7.434000 505.941000
81.279000 -7.439000 506.303000
81.931000 -7.446000 506.738000
82.537000 -7.448000 506.884000
83.207000 -7.456000 507.423000
83.813000 -7.458000 507.564000
84.484000 -7.466000 508.097000
85.107000 -7.469000 508.333000
53.956000 -6.191000 457.066000
54.448000 -6.187000 456.788000
54.928000 -6.182000 456.419000
55.437000 -6.180000 456.294000
55.912000 -6.175000 455.895000
56.425000 -6.174000 455.813000
56.911000 -6.170000 455.513000
57.425000 -6.169000 455.442000
57.913000 -6.165000 455.170000
58.430000 -6.165000 455.125000
58.921000 -6.161000 454.875000
59.458000 -6.163000 454.991000
59.960000 -6.161000 454.832000
60.493000 -6.162000 454.915000
60.994000 -6.160000 454.758000
61.534000 -6.161000 454.888000
62.042000 -6.160000 454.781000
62.598000 -6.163000 455.027000
63.121000 -6.163000 455.033000
63.675000 -6.166000 455.258000
64.210000 -6.168000 455.347000
64.778000 -6.172000 455.665000
65.328000 -6.174000 455.846000
65.889000 -6.178000 456.108000
66.450000 -6.181000 456.366000
80.771000 -6.864000 506.762000
81.387000 -6.867000 506.977000
82.058000 -6.874000 507.525000
82.662000 -6.876000 507.656000
83.337000 -6.884000 508.219000
83.952000 -6.886000 508.405000
84.620000 -6.893000 508.911000
85.238000 -6.896000 509.117000
53.386000 -5.661000 456.678000
53.854000 -5.655000 456.202000
54.357000 -5.653000 456.030000
54.837000 -5.649000 455.662000
55.332000 -5.646000 455.435000
55.826000 -5.643000 455.199000
56.326000 -5.641000 455.012000
56.829000 -5.639000 454.857000
57.333000 -5.637000 454.709000
57.827000 -5.634000 454.493000
58.337000 -5.633000 454.400000
58.836000 -5.631000 454.225000
59.356000 -5.631000 454.208000
59.869000 -5.630000 454.146000
60.398000 -5.631000 454.202000
60.912000 -5.630000 454.148000
61.431000 -5.630000 454.124000
61.952000 -5.630000 454.124000
62.503000 -5.632000 454.337000
63.027000 -5.632000 454.356000
63.566000 -5.634000 454.478000
64.090000 -5.634000 454.497000
64.639000 -5.637000 454.687000
65.198000 -5.640000 454.945000
65.761000 -5.643000 455.224000
66.321000 -5.646000 455.479000
81.557000 -6.298000 508.031000
82.228000 -6.305000 508.574000
82.840000 -6.307000 508.748000
83.511000 -6.313000 509.277000
84.126000 -6.316000 509.462000
84.794000 -6.322000 509.962000
85.410000 -6.324000 510.141000
52.811000 -5.132000 456.245000
53.310000 -5.130000 456.026000
53.778000 -5.124000 455.557000
54.279000 -5.122000 455.373000
54.763000 -5.118000 455.046000
55.253000 -5.116000 454.780000
55.753000 -5.113000 454.598000
56.257000 -5.112000 454.456000
56.749000 -5.109000 454.213000
57.260000 -5.108000 454.135000
57.750000 -5.105000 453.889000
58.267000 -5.105000 453.856000
58.765000 -5.103000 453.677000
59.274000 -5.102000 453.579000
59.794000 -5.102000 453.577000
60.316000 -5.102000 453.583000
60.835000 -5.102000 453.572000
61.347000 -5.101000 453.508000
61.877000 -5.102000 453.577000
62.413000 -5.103000 453.684000
62.947000 -5.104000 453.782000
63.470000 -5.104000 453.791000
64.010000 -5.106000 453.926000
64.556000 -5.108000 454.104000
65.103000 -5.110000 454.276000
65.659000 -5.113000 454.517000
66.223000 -5.116000 454.803000
66.789000 -5.119000 455.102000
67.354000 -5.122000 455.390000
67.942000 -5.127000 455.827000
68.526000 -5.132000 456.230000
69.117000 -5.137000 456.675000
69.729000 -5.143000 457.250000
82.366000 -5.730000 509.429000
82.981000 -5.732000 509.614000
83.651000 -5.738000 510.131000
84.271000 -5.740000 510.338000
84.940000 -5.746000 510.837000
85.556000 -5.748000 511.014000
86.235000 -5.754000 511.562000
86.850000 -5.756000 511.723000
87.538000 -5.763000 512.309000
52.739000 -4.602000 455.616000
53.229000 -4.599000 455.334000
53.706000 -4.595000 454.951000
54.193000 -4.592000 454.654000
54.680000 -4.589000 454.358000
55.188000 -4.588000 454.248000
55.666000 -4.584000 453.893000
56.184000 -4.584000 453.867000
56.665000 -4.581000 453.544000
57.185000 -4.581000 453.538000
57.676000 -4.578000 453.302000
58.189000 -4.578000 453.245000
58.689000 -4.576000 453.087000
59.206000 -4.576000 453.064000
59.704000 -4.574000 452.890000
60.239000 -4.575000 453.009000
60.753000 -4.575000 452.960000
61.278000 -4.575000 452.995000
61.787000 -4.574000 452.917000
62.326000 -4.576000 453.049000
62.863000 -4.577000 453.175000
63.393000 -4.578000 453.241000
63.922000 -4.578000 453.301000
64.462000 -4.580000 453.439000
65.008000 -4.582000 453.613000
65.553000 -4.583000 453.786000
66.113000 -4.586000 454.052000
66.673000 -4.589000 454.317000
67.244000 -4.592000 454.650000
67.805000 -4.595000 454.910000
68.391000 -4.599000 455.332000
68.987000 -4.604000 455.816000
69.565000 -4.607000 456.171000
83.143000 -5.157000 510.607000
83.823000 -5.163000 511.179000
84.427000 -5.164000 511.283000
85.114000 -5.170000 511.885000
85.723000 -5.171000 512.013000
86.410000 -5.177000 512.600000
87.028000 -5.179000 512.773000
87.710000 -5.185000 513.317000
88.332000 -5.186000 513.507000
52.199000 -4.077000 455.470000
52.679000 -4.074000 455.099000
53.159000 -4.071000 454.734000
53.637000 -4.067000 454.367000
54.140000 -4.066000 454.204000
54.616000 -4.063000 453.829000
55.134000 -4.062000 453.802000
55.606000 -4.059000 453.401000
56.119000 -4.058000 453.338000
56.609000 -4.056000 453.097000
57.121000 -4.055000 453.032000
57.614000 -4.054000 452.817000
58.124000 -4.053000 452.742000
58.623000 -4.051000 452.576000
59.149000 -4.052000 452.624000
59.643000 -4.050000 452.428000
60.179000 -4.051000 452.555000
60.681000 -4.050000 452.420000
61.212000 -4.051000 452.508000
61.719000 -4.050000 452.419000
62.263000 -4.052000 452.595000
62.782000 -4.051000 452.586000
63.324000 -4.053000 452.747000
63.845000 -4.053000 452.754000
64.397000 -4.055000 452.982000
64.931000 -4.056000 453.078000
65.479000 -4.058000 453.270000
66.030000 -4.059000 453.483000
66.588000 -4.062000 453.734000
67.147000 -4.064000 453.993000
67.723000 -4.067000 454.358000
68.300000 -4.071000 454.726000
68.858000 -4.073000 454.966000
69.467000 -4.078000 455.529000
70.078000 -4.083000 456.104000
70.684000 -4.088000 456.637000
83.962000 -4.584000 512.029000
84.570000 -4.585000 512.147000
85.252000 -4.590000 512.715000
85.865000 -4.591000 512.859000
86.573000 -4.597000 513.563000
87.192000 -4.599000 513.738000
87.863000 -4.603000 514.215000
88.480000 -4.605000 514.369000
51.644000 -3.552000 455.195000
52.134000 -3.550000 454.905000
52.614000 -3.547000 454.541000
53.101000 -3.545000 454.245000
53.574000 -3.541000 453.829000
54.077000 -3.540000 453.678000
54.554000 -3.537000 453.316000
55.057000 -3.536000 453.170000
55.547000 -3.534000 452.919000
56.052000 -3.533000 452.796000
56.546000 -3.532000 452.595000
57.054000 -3.531000 452.495000
57.548000 -3.530000 452.298000
58.057000 -3.529000 452.217000
58.557000 -3.528000 452.068000
59.076000 -3.528000 452.070000
59.580000 -3.527000 451.955000
60.104000 -3.527000 451.994000
60.614000 -3.527000 451.925000
61.140000 -3.527000 451.973000
61.655000 -3.527000 451.947000
62.189000 -3.528000 452.056000
62.701000 -3.527000 452.004000
63.246000 -3.529000 452.191000
63.767000 -3.529000 452.204000
64.321000 -3.531000 452.448000
64.849000 -3.531000 452.503000
65.403000 -3.533000 452.748000
65.957000 -3.535000 452.977000
66.505000 -3.536000 453.169000
67.058000 -3.538000 453.391000
67.624000 -3.540000 453.697000
68.191000 -3.543000 454.001000
68.762000 -3.545000 454.331000
69.358000 -3.549000 454.819000
69.944000 -3.552000 455.230000
70.553000 -3.557000 455.790000
71.165000 -3.561000 456.356000
84.754000 -4.005000 513.264000
85.448000 -4.010000 513.892000
86.058000 -4.011000 514.012000
86.761000 -4.016000 514.679000
87.366000 -4.017000 514.765000
88.066000 -4.022000 515.403000
88.652000 -4.022000 515.364000
89.347000 -4.026000 515.966000
51.591000 -3.026000 454.728000
52.080000 -3.024000 454.431000
52.551000 -3.021000 453.998000
53.050000 -3.020000 453.805000
53.522000 -3.017000 453.389000
54.022000 -3.016000 453.220000
54.505000 -3.014000 452.907000
54.997000 -3.013000 452.676000
55.495000 -3.011000 452.498000
55.990000 -3.010000 452.296000
56.492000 -3.009000 452.157000
56.998000 -3.009000 452.053000
57.493000 -3.007000 451.862000
58.004000 -3.007000 451.805000
58.503000 -3.006000 451.650000
59.017000 -3.006000 451.619000
59.518000 -3.005000 451.481000
60.039000 -3.005000 451.503000
60.556000 -3.005000 451.494000
61.078000 -3.005000 451.521000
61.595000 -3.005000 451.505000
62.119000 -3.005000 451.549000
62.644000 -3.005000 451.592000
63.182000 -3.006000 451.733000
63.708000 -3.007000 451.782000
64.244000 -3.008000 451.909000
64.780000 -3.008000 452.024000
65.329000 -3.010000 452.234000
65.874000 -3.011000 452.407000
66.432000 -3.013000 452.669000
66.976000 -3.014000 452.838000
67.533000 -3.015000 453.082000
68.114000 -3.018000 453.485000
68.687000 -3.020000 453.833000
69.265000 -3.023000 454.205000
69.849000 -3.026000 454.614000
70.463000 -3.030000 455.208000
71.055000 -3.032000 455.654000
71.682000 -3.037000 456.310000
86.189000 -3.426000 514.792000
86.894000 -3.431000 515.469000
87.486000 -3.431000 515.469000
88.192000 -3.435000 516.138000
88.814000 -3.436000 516.309000
89.492000 -3.439000 516.799000
51.059000 -2.504000 454.639000
51.537000 -2.502000 454.244000
52.029000 -2.500000 453.986000
52.496000 -2.498000 453.523000
52.992000 -2.496000 453.309000
53.466000 -2.494000 452.919000
53.962000 -2.493000 452.715000
54.448000 -2.492000 452.429000
54.944000 -2.490000 452.240000
55.441000 -2.489000 452.052000
55.938000 -2.488000 451.875000
56.436000 -2.488000 451.710000
56.948000 -2.487000 451.655000
57.436000 -2.486000 451.418000
57.949000 -2.486000 451.375000
58.452000 -2.485000 451.259000
58.962000 -2.485000 451.197000
59.464000 -2.484000 451.074000
59.980000 -2.484000 451.061000
60.500000 -2.484000 451.071000
61.020000 -2.484000 451.092000
61.540000 -2.484000 451.101000
62.055000 -2.484000 451.078000
62.585000 -2.485000 451.167000
63.106000 -2.485000 451.190000
63.647000 -2.486000 451.350000
64.177000 -2.486000 451.432000
64.723000 -2.487000 451.629000
65.257000 -2.488000 451.734000
65.798000 -2.489000 451.885000
66.352000 -2.490000 452.126000
66.897000 -2.491000 452.300000
67.447000 -2.492000 452.504000
68.020000 -2.494000 452.862000
68.598000 -2.496000 453.247000
69.172000 -2.498000 453.596000
69.754000 -2.500000 453.994000
70.357000 -2.503000 454.524000
70.934000 -2.505000 454.874000
71.562000 -2.509000 455.551000
72.182000 -2.512000 456.161000
87.067000 -2.844000 516.493000
87.682000 -2.845000 516.627000
88.378000 -2.848000 517.227000
88.989000 -2.849000 517.328000
89.691000 -2.852000 517.948000
50.523000 -1.981000 454.511000
51.013000 -1.980000 454.229000
51.487000 -1.978000 453.805000
51.980000 -1.977000 453.565000
52.448000 -1.975000 453.108000
52.942000 -1.974000 452.884000
53.422000 -1.972000 452.539000
53.915000 -1.972000 452.320000
54.399000 -1.970000 452.028000
54.902000 -1.970000 451.893000
55.386000 -1.968000 451.608000
55.898000 -1.968000 451.551000
56.377000 -1.967000 451.237000
56.903000 -1.967000 451.301000
57.384000 -1.966000 451.007000
57.903000 -1.966000 451.016000
58.397000 -1.965000 450.837000
58.915000 -1.965000 450.835000
59.417000 -1.965000 450.719000
59.941000 -1.965000 450.767000
60.457000 -1.965000 450.754000
60.977000 -1.965000 450.772000
61.488000 -1.965000 450.725000
62.006000 -1.965000 450.728000
62.533000 -1.965000 450.794000
63.059000 -1.965000 450.855000
63.595000 -1.966000 450.982000
64.116000 -1.966000 451.005000
64.662000 -1.967000 451.203000
65.198000 -1.967000 451.326000
65.739000 -1.968000 451.480000
66.286000 -1.969000 451.675000
66.851000 -1.970000 451.987000
67.399000 -1.971000 452.186000
67.961000 -1.972000 452.467000
68.519000 -1.973000 452.724000
69.097000 -1.975000 453.103000
69.678000 -1.977000 453.499000
70.268000 -1.979000 453.949000
70.858000 -1.981000 454.387000
71.483000 -1.983000 455.044000
72.073000 -1.985000 455.469000
72.717000 -1.989000 456.231000
87.231000 -2.255000 517.468000
87.843000 -2.256000 517.571000
88.543000 -2.259000 518.191000
89.149000 -2.259000 518.255000
89.848000 -2.262000 518.856000
50.015000 -1.460000 454.635000
50.474000 -1.458000 454.074000
50.967000 -1.457000 453.821000
51.439000 -1.456000 453.387000
51.930000 -1.455000 453.122000
52.401000 -1.453000 452.699000
52.891000 -1.453000 452.443000
53.378000 -1.452000 452.168000
53.873000 -1.451000 451.963000
54.356000 -1.450000 451.667000
54.863000 -1.450000 451.571000
55.336000 -1.449000 451.203000
55.857000 -1.449000 451.221000
56.333000 -1.448000 450.888000
56.855000 -1.448000 450.920000
57.341000 -1.447000 450.672000
57.854000 -1.447000 450.639000
58.353000 -1.446000 450.494000
58.872000 -1.446000 450.504000
59.373000 -1.446000 450.382000
59.897000 -1.446000 450.433000
60.405000 -1.446000 450.365000
60.922000 -1.446000 450.363000
61.434000 -1.446000 450.328000
61.963000 -1.446000 450.414000
62.482000 -1.446000 450.423000
63.008000 -1.446000 450.492000
63.530000 -1.446000 450.522000
64.064000 -1.447000 450.637000
64.597000 -1.447000 450.751000
65.138000 -1.448000 450.910000
65.687000 -1.448000 451.124000
66.228000 -1.449000 451.285000
66.785000 -1.450000 451.544000
67.332000 -1.450000 451.738000
67.889000 -1.451000 451.991000
68.447000 -1.452000 452.247000
69.032000 -1.453000 452.677000
69.596000 -1.454000 452.965000
70.175000 -1.455000 453.345000
70.771000 -1.457000 453.830000
71.387000 -1.459000 454.434000
71.973000 -1.460000 454.841000
72.606000 -1.462000 455.537000
89.336000 -1.667000 519.346000
90.020000 -1.669000 519.852000
90.657000 -1.670000 520.077000
91.301000 -1.671000 520.345000
91.964000 -1.672000 520.717000
48.525000 -0.939000 455.355000
49.018000 -0.938000 455.078000
49.482000 -0.937000 454.535000
49.963000 -0.937000 454.164000
50.434000 -0.936000 453.711000
50.922000 -0.935000 453.414000
51.395000 -0.934000 452.999000
51.882000 -0.934000 452.707000
52.360000 -0.933000 452.346000
52.854000 -0.932000 452.128000
53.343000 -0.932000 451.873000
53.841000 -0.931000 451.698000
54.315000 -0.931000 451.330000
54.821000 -0.931000 451.224000
55.304000 -0.930000 450.938000
55.812000 -0.930000 450.864000
56.297000 -0.929000 450.596000
56.805000 -0.929000 450.527000
57.307000 -0.929000 450.401000
57.810000 -0.929000 450.294000
58.316000 -0.928000 450.205000
58.828000 -0.928000 450.172000
59.331000 -0.928000 450.068000
59.848000 -0.928000 450.067000
60.352000 -0.928000 449.973000
60.878000 -0.928000 450.042000
61.388000 -0.928000 449.988000
61.919000 -0.928000 450.095000
62.427000 -0.928000 450.031000
62.967000 -0.928000 450.197000
63.485000 -0.928000 450.206000
64.025000 -0.929000 450.362000
64.548000 -0.929000 450.407000
65.093000 -0.929000 450.598000
65.639000 -0.930000 450.795000
66.176000 -0.930000 450.925000
66.725000 -0.930000 451.140000
67.278000 -0.931000 451.371000
67.831000 -0.931000 451.603000
68.382000 -0.932000 451.816000
68.956000 -0.932000 452.180000
69.522000 -0.933000 452.487000
70.112000 -0.934000 452.938000
70.689000 -0.935000 453.304000
71.297000 -0.936000 453.858000
71.894000 -0.937000 454.343000
72.526000 -0.938000 455.032000
73.127000 -0.939000 455.522000
73.797000 -0.941000 456.432000
89.483000 -1.073000 520.196000
90.171000 -1.074000 520.722000
90.800000 -1.074000 520.902000
91.481000 -1.075000 521.373000
92.126000 -1.076000 521.636000
48.489000 -0.416000 455.010000
48.979000 -0.416000 454.710000
49.445000 -0.415000 454.195000
49.924000 -0.415000 453.813000
50.398000 -0.414000 453.386000
50.879000 -0.414000 453.032000
51.356000 -0.414000 452.653000
51.841000 -0.413000 452.347000
52.317000 -0.413000 451.975000
52.816000 -0.413000 451.803000
53.293000 -0.413000 451.447000
53.795000 -0.412000 451.310000
54.273000 -0.412000 450.980000
54.778000 -0.412000 450.870000
55.266000 -0.412000 450.630000
55.774000 -0.412000 450.555000
56.266000 -0.412000 450.348000
56.760000 -0.411000 450.168000
57.268000 -0.411000 450.095000
57.769000 -0.411000 449.971000
58.274000 -0.411000 449.885000
58.786000 -0.411000 449.850000
59.289000 -0.411000 449.745000
59.804000 -0.411000 449.737000
60.312000 -0.411000 449.675000
60.839000 -0.411000 449.751000
61.342000 -0.411000 449.653000
61.873000 -0.411000 449.756000
62.379000 -0.411000 449.683000
62.925000 -0.411000 449.893000
63.430000 -0.411000 449.812000
63.981000 -0.411000 450.057000
64.499000 -0.411000 450.063000
65.041000 -0.411000 450.238000
65.576000 -0.412000 450.364000
66.123000 -0.412000 450.568000
66.666000 -0.412000 450.741000
67.209000 -0.412000 450.910000
67.765000 -0.412000 451.165000
68.322000 -0.413000 451.422000
68.887000 -0.413000 451.726000
69.448000 -0.413000 452.005000
70.056000 -0.414000 452.578000
70.616000 -0.414000 452.835000
71.220000 -0.414000 453.371000
71.808000 -0.415000 453.795000
72.429000 -0.415000 454.426000
73.043000 -0.416000 455.001000
73.691000 -0.417000 455.776000
89.659000 -0.476000 521.220000
90.410000 -0.477000 522.101000
90.981000 -0.477000 521.937000
91.691000 -0.478000 522.570000
92.309000 -0.478000 522.671000
92.980000 -0.478000 523.069000
48.451000 0.107000 454.655000
48.942000 0.106000 454.367000
49.408000 0.106000 453.853000
49.890000 0.106000 453.503000
50.358000 0.106000 453.029000
50.845000 0.106000 452.731000
51.319000 0.106000 452.330000
51.808000 0.106000 452.057000
52.280000 0.106000 451.652000
52.779000 0.106000 451.490000
53.253000 0.106000 451.114000
53.762000 0.106000 451.038000
54.242000 0.106000 450.721000
54.748000 0.106000 450.623000
55.230000 0.106000 450.336000
55.732000 0.106000 450.217000
56.234000 0.105000 450.097000
56.722000 0.105000 449.863000
57.230000 0.105000 449.802000
57.736000 0.105000 449.717000
58.238000 0.105000 449.602000
58.752000 0.105000 449.585000
59.251000 0.105000 449.461000
59.772000 0.105000 449.491000
60.275000 0.105000 449.399000
60.804000 0.105000 449.494000
61.308000 0.105000 449.403000
61.837000 0.105000 449.496000
62.344000 0.105000 449.434000
62.872000 0.105000 449.516000
63.393000 0.105000 449.551000
63.938000 0.105000 449.757000
64.460000 0.105000 449.793000
65.004000 0.105000 449.985000
65.533000 0.105000 450.067000
66.075000 0.106000 450.236000
66.619000 0.106000 450.420000
67.161000 0.106000 450.589000
67.717000 0.106000 450.848000
68.283000 0.106000 451.166000
68.842000 0.106000 451.435000
69.395000 0.106000 451.659000
69.991000 0.106000 452.156000
70.542000 0.106000 452.363000
71.159000 0.106000 452.981000
71.741000 0.106000 453.371000
72.355000 0.106000 453.958000
72.969000 0.107000 454.538000
73.609000 0.107000 455.269000
89.800000 0.122000 522.040000
90.517000 0.123000 522.722000
91.142000 0.123000 522.863000
91.817000 0.123000 523.285000
92.474000 0.123000 523.605000
93.150000 0.123000 524.026000
93.808000 0.123000 524.342000
48.896000 0.628000 453.939000
49.368000 0.627000 453.490000
49.853000 0.627000 453.167000
50.314000 0.626000 452.628000
50.808000 0.626000 452.404000
51.284000 0.625000 452.017000
51.768000 0.625000 451.717000
52.242000 0.624000 451.327000
52.740000 0.624000 451.152000
53.219000 0.623000 450.823000
53.725000 0.623000 450.727000
54.208000 0.623000 450.438000
54.709000 0.623000 450.306000
55.194000 0.622000 450.041000
55.691000 0.622000 449.882000
56.190000 0.622000 449.744000
56.692000 0.622000 449.629000
57.189000 0.621000 449.479000
57.701000 0.621000 449.440000
58.191000 0.621000 449.243000
58.711000 0.621000 449.275000
59.214000 0.621000 449.177000
59.734000 0.621000 449.206000
60.237000 0.621000 449.111000
60.761000 0.621000 449.173000
61.272000 0.621000 449.139000
61.790000 0.621000 449.152000
62.308000 0.621000 449.169000
62.831000 0.621000 449.223000
63.359000 0.621000 449.311000
63.891000 0.621000 449.421000
64.421000 0.622000 449.521000
64.959000 0.622000 449.674000
65.487000 0.622000 449.748000
66.026000 0.622000 449.903000
66.567000 0.622000 450.072000
67.115000 0.623000 450.276000
67.668000 0.623000 450.519000
68.215000 0.623000 450.717000
68.789000 0.624000 451.085000
69.349000 0.624000 451.357000
69.918000 0.625000 451.688000
70.489000 0.625000 452.024000
71.096000 0.626000 452.582000
71.665000 0.626000 452.895000
72.289000 0.627000 453.543000
72.893000 0.628000 454.067000
73.536000 0.629000 454.815000
74.137000 0.630000 455.301000
89.990000 0.723000 523.146000
90.662000 0.724000 523.560000
91.318000 0.724000 523.873000
92.018000 0.725000 524.433000
92.642000 0.725000 524.558000
93.367000 0.726000 525.246000
93.993000 0.726000 525.375000
48.865000 1.148000 453.656000
49.338000 1.147000 453.209000
49.822000 1.146000 452.885000
50.282000 1.145000 452.343000
50.776000 1.144000 452.114000
51.249000 1.143000 451.707000
51.742000 1.143000 451.486000
52.213000 1.142000 451.078000
52.714000 1.141000 450.929000
53.194000 1.140000 450.611000
53.690000 1.140000 450.431000
54.178000 1.139000 450.186000
54.679000 1.139000 450.054000
55.172000 1.139000 449.861000
55.667000 1.138000 449.689000
56.160000 1.138000 449.504000
56.666000 1.137000 449.421000
57.155000 1.137000 449.212000
57.673000 1.137000 449.226000
58.161000 1.136000 449.012000
58.683000 1.137000 449.063000
59.183000 1.136000 448.942000
59.695000 1.136000 448.918000
60.203000 1.136000 448.861000
60.717000 1.136000 448.847000
61.241000 1.136000 448.914000
61.757000 1.136000 448.919000
62.277000 1.136000 448.950000
62.793000 1.136000 448.950000
63.324000 1.137000 449.060000
63.851000 1.137000 449.141000
64.390000 1.137000 449.307000
64.917000 1.137000 449.380000
65.451000 1.138000 449.505000
65.986000 1.138000 449.630000
66.523000 1.138000 449.773000
67.076000 1.139000 450.018000
67.630000 1.140000 450.265000
68.175000 1.140000 450.451000
68.749000 1.141000 450.820000
69.308000 1.142000 451.090000
69.874000 1.142000 451.405000
70.443000 1.143000 451.730000
71.057000 1.145000 452.332000
71.615000 1.145000 452.579000
72.239000 1.147000 453.233000
72.824000 1.148000 453.636000
73.467000 1.150000 454.387000
74.065000 1.151000 454.859000
74.756000 1.154000 455.887000
89.518000 1.326000 523.899000
90.120000 1.326000 523.901000
90.854000 1.328000 524.666000
91.472000 1.328000 524.756000
92.214000 1.330000 525.548000
92.794000 1.330000 525.415000
93.497000 1.331000 525.980000
94.167000 1.332000 526.344000
48.830000 1.668000 453.329000
49.301000 1.666000 452.874000
49.791000 1.665000 452.599000
50.257000 1.663000 452.120000
50.747000 1.662000 451.862000
51.217000 1.661000 451.431000
51.713000 1.660000 451.229000
52.185000 1.659000 450.834000
52.685000 1.658000 450.680000
53.168000 1.657000 450.389000
53.659000 1.656000 450.170000
54.147000 1.655000 449.934000
54.642000 1.655000 449.756000
55.138000 1.654000 449.584000
55.636000 1.654000 449.440000
56.128000 1.653000 449.243000
56.634000 1.653000 449.170000
57.121000 1.652000 448.939000
57.638000 1.652000 448.952000
58.129000 1.651000 448.765000
58.645000 1.651000 448.770000
59.151000 1.651000 448.697000
59.668000 1.651000 448.709000
60.172000 1.651000 448.630000
60.683000 1.650000 448.596000
61.210000 1.651000 448.682000
61.722000 1.651000 448.663000
62.243000 1.651000 448.707000
62.754000 1.651000 448.670000
63.290000 1.651000 448.823000
63.802000 1.651000 448.797000
64.354000 1.652000 449.052000
64.878000 1.652000 449.111000
65.419000 1.653000 449.282000
65.950000 1.653000 449.387000
66.495000 1.654000 449.583000
67.036000 1.655000 449.748000
67.593000 1.656000 450.017000
68.135000 1.656000 450.186000
68.705000 1.658000 450.533000
69.268000 1.659000 450.829000
69.827000 1.660000 451.102000
70.400000 1.661000 451.452000
70.991000 1.663000 451.915000
71.564000 1.664000 452.257000
72.183000 1.666000 452.882000
72.768000 1.668000 453.289000
73.387000 1.670000 453.892000
73.992000 1.672000 454.412000
74.687000 1.676000 455.465000
90.326000 1.932000 525.097000
91.078000 1.935000 525.959000
91.688000 1.935000 525.995000
92.372000 1.937000 526.448000
93.045000 1.938000 526.836000
93.709000 1.940000 527.172000
94.376000 1.941000 527.515000
48.330000 2.189000 453.526000
48.806000 2.187000 453.108000
49.269000 2.185000 452.576000
49.767000 2.184000 452.381000
50.236000 2.182000 451.927000
50.723000 2.180000 451.640000
51.197000 2.178000 451.256000
51.689000 2.177000 451.022000
52.164000 2.176000 450.655000
52.661000 2.175000 450.477000
53.143000 2.173000 450.177000
53.636000 2.172000 449.978000
54.125000 2.171000 449.749000
54.620000 2.170000 449.571000
55.107000 2.169000 449.335000
55.611000 2.169000 449.233000
56.101000 2.168000 449.026000
56.614000 2.168000 449.009000
57.094000 2.166000 448.730000
57.618000 2.167000 448.795000
58.107000 2.166000 448.597000
58.620000 2.165000 448.575000
59.123000 2.165000 448.487000
59.641000 2.165000 448.508000
60.142000 2.165000 448.408000
60.657000 2.165000 448.403000
61.174000 2.165000 448.418000
61.697000 2.165000 448.476000
62.220000 2.165000 448.535000
62.729000 2.165000 448.494000
63.268000 2.166000 448.666000
63.774000 2.166000 448.598000
64.325000 2.167000 448.853000
64.844000 2.167000 448.877000
65.382000 2.168000 449.033000
65.917000 2.168000 449.160000
66.464000 2.169000 449.372000
66.999000 2.170000 449.504000
67.560000 2.171000 449.798000
68.097000 2.172000 449.937000
68.664000 2.174000 450.264000
69.215000 2.175000 450.488000
69.792000 2.177000 450.872000
70.363000 2.178000 451.212000
70.946000 2.180000 451.627000
71.510000 2.182000 451.916000
72.136000 2.185000 452.585000
72.719000 2.187000 452.981000
73.331000 2.189000 453.549000
73.921000 2.192000 453.974000
74.609000 2.196000 454.989000
91.186000 2.542000 526.585000
91.824000 2.543000 526.775000
92.504000 2.545000 527.203000
93.174000 2.547000 527.566000
93.879000 2.549000 528.126000
94.494000 2.550000 528.172000
48.782000 2.706000 452.881000
49.243000 2.703000 452.341000
49.739000 2.702000 452.129000
50.207000 2.699000 451.670000
50.694000 2.697000 451.383000
51.173000 2.695000 451.044000
51.666000 2.694000 450.820000
52.142000 2.692000 450.466000
52.640000 2.691000 450.295000
53.119000 2.689000 449.979000
53.615000 2.688000 449.801000
54.096000 2.686000 449.508000
54.595000 2.685000 449.362000
55.079000 2.684000 449.103000
55.590000 2.683000 449.064000
56.070000 2.682000 448.781000
56.593000 2.682000 448.840000
57.071000 2.680000 448.552000
57.595000 2.681000 448.615000
58.079000 2.679000 448.377000
58.591000 2.679000 448.355000
59.093000 2.679000 448.260000
59.616000 2.679000 448.319000
60.120000 2.679000 448.242000
60.634000 2.679000 448.239000
61.146000 2.678000 448.215000
61.663000 2.679000 448.234000
62.187000 2.679000 448.302000
62.704000 2.679000 448.313000
63.236000 2.680000 448.440000
63.751000 2.680000 448.439000
64.297000 2.681000 448.653000
64.816000 2.681000 448.679000
65.353000 2.682000 448.828000
65.876000 2.682000 448.881000
66.434000 2.684000 449.169000
66.969000 2.685000 449.297000
67.518000 2.686000 449.520000
68.061000 2.687000 449.696000
68.628000 2.689000 450.029000
69.171000 2.690000 450.200000
69.743000 2.692000 450.556000
70.317000 2.695000 450.918000
70.894000 2.697000 451.298000
71.474000 2.699000 451.684000
72.083000 2.703000 452.253000
72.672000 2.705000 452.685000
73.282000 2.708000 453.247000
73.877000 2.711000 453.702000
74.542000 2.716000 454.583000
75.150000 2.720000 455.104000
91.376000 3.153000 527.679000
91.994000 3.154000 527.752000
92.756000 3.159000 528.640000
93.359000 3.159000 528.615000
94.079000 3.163000 529.252000
94.701000 3.163000 529.330000
48.760000 3.225000 452.677000
49.221000 3.221000 452.140000
49.715000 3.219000 451.911000
50.185000 3.216000 451.468000
50.673000 3.214000 451.195000
51.151000 3.212000 450.843000
51.645000 3.210000 450.636000
52.120000 3.208000 450.272000
52.613000 3.206000 450.067000
53.096000 3.204000 449.781000
53.592000 3.203000 449.612000
54.073000 3.201000 449.314000
54.574000 3.200000 449.194000
55.058000 3.198000 448.935000
55.572000 3.198000 448.924000
56.051000 3.196000 448.630000
56.573000 3.196000 448.687000
57.054000 3.194000 448.414000
57.572000 3.195000 448.436000
58.060000 3.193000 448.234000
58.572000 3.193000 448.212000
59.073000 3.192000 448.109000
59.592000 3.193000 448.142000
60.099000 3.192000 448.086000
60.609000 3.192000 448.048000
61.124000 3.192000 448.053000
61.642000 3.192000 448.081000
62.159000 3.192000 448.096000
62.678000 3.192000 448.129000
63.203000 3.193000 448.204000
63.728000 3.194000 448.279000
64.271000 3.195000 448.475000
64.797000 3.195000 448.551000
65.330000 3.196000 448.672000
65.850000 3.197000 448.705000
66.409000 3.199000 449.000000
66.942000 3.200000 449.118000
67.492000 3.201000 449.346000
68.028000 3.202000 449.482000
68.601000 3.205000 449.854000
69.135000 3.206000 449.969000
69.715000 3.208000 450.374000
70.272000 3.210000 450.630000
70.860000 3.213000 451.077000
71.432000 3.216000 451.420000
72.039000 3.220000 451.980000
72.611000 3.222000 452.305000
73.242000 3.227000 453.001000
73.832000 3.230000 453.428000
74.488000 3.236000 454.251000
75.086000 3.239000 454.715000
75.813000 3.248000 455.947000
91.580000 3.768000 528.856000
92.159000 3.766000 528.698000
92.900000 3.772000 529.460000
93.532000 3.773000 529.593000
94.237000 3.777000 530.141000
94.909000 3.779000 530.492000
95.585000 3.782000 530.865000
48.743000 3.743000 452.524000
49.203000 3.739000 451.970000
49.688000 3.736000 451.667000
50.165000 3.733000 451.290000
50.652000 3.731000 451.009000
51.125000 3.728000 450.614000
51.622000 3.726000 450.443000
52.097000 3.723000 450.076000
52.591000 3.721000 449.878000
53.075000 3.719000 449.604000
53.570000 3.718000 449.422000
54.055000 3.716000 449.164000
54.554000 3.714000 449.030000
55.038000 3.712000 448.772000
55.554000 3.712000 448.773000
56.032000 3.710000 448.477000
56.548000 3.710000 448.482000
57.031000 3.708000 448.231000
57.550000 3.708000 448.264000
58.046000 3.707000 448.122000
58.549000 3.706000 448.033000
59.054000 3.706000 447.962000
59.563000 3.705000 447.922000
60.077000 3.705000 447.917000
60.585000 3.705000 447.875000
61.099000 3.705000 447.869000
61.616000 3.705000 447.891000
62.130000 3.705000 447.890000
62.662000 3.706000 448.013000
63.181000 3.706000 448.045000
63.705000 3.707000 448.117000
64.240000 3.708000 448.255000
64.766000 3.709000 448.334000
65.304000 3.710000 448.497000
65.828000 3.711000 448.559000
66.377000 3.712000 448.785000
66.913000 3.714000 448.923000
67.466000 3.716000 449.174000
68.006000 3.717000 449.331000
68.565000 3.719000 449.617000
69.108000 3.721000 449.791000
69.689000 3.724000 450.210000
70.236000 3.726000 450.398000
70.822000 3.729000 450.837000
71.394000 3.732000 451.181000
71.987000 3.736000 451.653000
72.569000 3.739000 452.045000
73.194000 3.745000 452.701000
73.781000 3.748000 453.116000
74.427000 3.755000 453.883000
75.041000 3.759000 454.443000
75.742000 3.768000 455.520000
91.756000 4.383000 529.872000
92.397000 4.385000 530.059000
93.060000 4.387000 530.370000
93.720000 4.390000 530.659000
94.441000 4.395000 531.287000
95.075000 4.396000 531.421000
95.793000 4.401000 532.023000
48.728000 4.262000 452.386000
49.187000 4.256000 451.829000
49.671000 4.253000 451.506000
50.148000 4.250000 451.134000
50.634000 4.247000 450.853000
51.108000 4.244000 450.466000
51.606000 4.242000 450.298000
52.076000 4.238000 449.895000
52.573000 4.237000 449.721000
53.059000 4.234000 449.463000
53.553000 4.232000 449.281000
54.037000 4.230000 449.017000
54.540000 4.229000 448.913000
55.024000 4.227000 448.659000
55.530000 4.226000 448.581000
56.015000 4.224000 448.343000
56.527000 4.223000 448.316000
57.019000 4.222000 448.139000
57.527000 4.221000 448.089000
58.030000 4.220000 448.002000
58.531000 4.219000 447.897000
59.037000 4.219000 447.837000
59.547000 4.218000 447.799000
60.062000 4.219000 447.807000
60.571000 4.218000 447.769000
61.075000 4.218000 447.694000
61.595000 4.218000 447.738000
62.108000 4.218000 447.729000
62.643000 4.219000 447.881000
63.161000 4.219000 447.904000
63.680000 4.220000 447.939000
64.211000 4.221000 448.053000
64.746000 4.222000 448.199000
65.280000 4.223000 448.329000
65.809000 4.224000 448.427000
66.352000 4.226000 448.615000
66.880000 4.227000 448.705000
67.443000 4.230000 449.018000
67.983000 4.232000 449.181000
68.542000 4.234000 449.464000
69.090000 4.236000 449.670000
69.670000 4.240000 450.084000
70.206000 4.241000 450.208000
70.788000 4.245000 450.621000
71.365000 4.249000 450.996000
71.960000 4.253000 451.480000
72.538000 4.257000 451.855000
73.162000 4.263000 452.502000
73.733000 4.266000 452.820000
74.393000 4.274000 453.671000
75.005000 4.279000 454.226000
75.684000 4.288000 455.170000
93.224000 5.005000 531.307000
93.848000 5.006000 531.385000
94.585000 5.013000 532.096000
95.221000 5.014000 532.239000
95.941000 5.020000 532.841000
96.609000 5.023000 533.150000
47.751000 4.787000 452.973000
48.211000 4.781000 452.408000
48.708000 4.779000 452.194000
49.172000 4.774000 451.690000
49.654000 4.770000 451.359000
50.134000 4.767000 451.008000
50.617000 4.763000 450.702000
51.093000 4.759000 450.334000
51.588000 4.757000 450.141000
52.062000 4.753000 449.767000
52.558000 4.752000 449.600000
53.042000 4.749000 449.322000
53.539000 4.747000 449.165000
54.015000 4.744000 448.831000
54.525000 4.743000 448.787000
55.011000 4.741000 448.548000
55.517000 4.740000 448.474000
56.001000 4.737000 448.229000
56.506000 4.736000 448.156000
57.006000 4.735000 448.041000
57.511000 4.734000 447.963000
58.015000 4.734000 447.881000
58.515000 4.732000 447.776000
59.024000 4.732000 447.732000
59.529000 4.731000 447.670000
60.039000 4.731000 447.635000
60.554000 4.731000 447.645000
61.057000 4.730000 447.561000
61.578000 4.731000 447.616000
62.091000 4.731000 447.608000
62.619000 4.732000 447.709000
63.138000 4.732000 447.741000
63.663000 4.733000 447.821000
64.189000 4.734000 447.903000
64.725000 4.735000 448.048000
65.256000 4.737000 448.167000
65.790000 4.738000 448.295000
66.328000 4.740000 448.455000
66.857000 4.741000 448.551000
67.411000 4.743000 448.805000
67.963000 4.746000 449.049000
68.522000 4.749000 449.332000
69.060000 4.750000 449.477000
69.642000 4.755000 449.902000
70.175000 4.756000 450.010000
70.767000 4.761000 450.490000
71.330000 4.764000 450.777000
71.932000 4.770000 451.308000
72.508000 4.774000 451.668000
73.136000 4.781000 452.343000
73.702000 4.784000 452.626000
74.357000 4.792000 453.454000
74.974000 4.799000 454.036000
75.643000 4.808000 454.927000
47.744000 5.307000 452.902000
48.203000 5.300000 452.328000
48.693000 5.297000 452.060000
49.160000 5.291000 451.575000
49.638000 5.287000 451.214000
50.116000 5.283000 450.847000
50.604000 5.280000 450.585000
51.079000 5.275000 450.214000
51.573000 5.273000 450.010000
52.052000 5.269000 449.685000
52.546000 5.267000 449.494000
53.028000 5.263000 449.205000
53.529000 5.262000 449.083000
54.004000 5.258000 448.743000
54.513000 5.257000 448.691000
54.992000 5.254000 448.397000
55.502000 5.253000 448.360000
55.986000 5.251000 448.109000
56.493000 5.250000 448.046000
56.991000 5.248000 447.918000
57.496000 5.247000 447.849000
57.999000 5.246000 447.760000
58.500000 5.245000 447.663000
59.007000 5.245000 447.607000
59.515000 5.244000 447.560000
60.024000 5.244000 447.522000
60.542000 5.244000 447.554000
61.045000 5.243000 447.478000
61.561000 5.243000 447.489000
62.077000 5.243000 447.509000
62.606000 5.245000 447.611000
63.118000 5.245000 447.599000
63.650000 5.246000 447.725000
64.165000 5.246000 447.734000
64.706000 5.248000 447.918000
65.236000 5.250000 448.025000
65.767000 5.251000 448.140000
66.313000 5.253000 448.350000
66.841000 5.254000 448.442000
67.393000 5.257000 448.687000
67.945000 5.260000 448.929000
68.501000 5.263000 449.194000
69.037000 5.265000 449.331000
69.607000 5.269000 449.680000
70.159000 5.272000 449.908000
70.759000 5.278000 450.435000
71.313000 5.281000 450.672000
71.901000 5.286000 451.109000
72.480000 5.290000 451.489000
73.103000 5.298000 452.138000
73.669000 5.301000 452.424000
74.325000 5.311000 453.256000
74.924000 5.316000 453.733000
75.616000 5.328000 454.765000
76.256000 5.337000 455.464000
47.736000 5.826000 452.828000
48.191000 5.818000 452.222000
48.676000 5.814000 451.900000
49.147000 5.808000 451.463000
49.628000 5.804000 451.117000
50.103000 5.799000 450.734000
50.592000 5.795000 450.475000
51.064000 5.790000 450.075000
51.562000 5.788000 449.915000
52.043000 5.784000 449.611000
52.532000 5.781000 449.375000
53.016000 5.778000 449.100000
53.514000 5.776000 448.956000
53.993000 5.772000 448.654000
54.501000 5.771000 448.595000
54.981000 5.768000 448.308000
55.490000 5.767000 448.262000
55.977000 5.764000 448.038000
56.485000 5.764000 447.989000
56.981000 5.762000 447.842000
57.482000 5.760000 447.737000
57.990000 5.760000 447.688000
58.490000 5.758000 447.579000
58.996000 5.757000 447.521000
59.503000 5.757000 447.471000
60.014000 5.757000 447.449000
60.525000 5.756000 447.427000
61.034000 5.756000 447.392000
61.549000 5.756000 447.403000
62.065000 5.756000 447.418000
62.592000 5.757000 447.511000
63.097000 5.757000 447.451000
63.634000 5.759000 447.614000
64.151000 5.759000 447.639000
64.690000 5.761000 447.807000
65.222000 5.763000 447.933000
65.753000 5.764000 448.042000
66.293000 5.766000 448.220000
66.830000 5.768000 448.365000
67.380000 5.771000 448.603000
67.918000 5.773000 448.756000
68.480000 5.777000 449.060000
69.025000 5.780000 449.249000
69.591000 5.784000 449.572000
70.137000 5.786000 449.764000
70.742000 5.794000 450.328000
71.287000 5.796000 450.508000
71.874000 5.802000 450.944000
72.448000 5.806000 451.292000
73.072000 5.814000 451.946000
73.644000 5.819000 452.273000
74.290000 5.829000 453.044000
74.894000 5.835000 453.550000
75.572000 5.847000 454.498000
76.204000 5.856000 455.157000
98.547000 6.909000 537.042000
99.230000 6.914000 537.399000
47.727000 6.345000 452.740000
48.178000 6.335000 452.096000
48.663000 6.331000 451.779000
49.138000 6.325000 451.379000
49.617000 6.320000 451.017000
50.093000 6.315000 450.640000
50.585000 6.312000 450.413000
51.049000 6.305000 449.949000
51.549000 6.303000 449.798000
52.032000 6.299000 449.509000
52.524000 6.296000 449.309000
53.006000 6.292000 449.021000
53.504000 6.290000 448.870000
53.983000 6.286000 448.568000
54.484000 6.284000 448.452000
54.972000 6.281000 448.235000
55.476000 6.280000 448.146000
55.970000 6.278000 447.985000
56.471000 6.276000 447.873000
56.971000 6.275000 447.766000
57.463000 6.272000 447.591000
57.981000 6.273000 447.625000
58.476000 6.271000 447.476000
58.984000 6.270000 447.430000
59.488000 6.269000 447.358000
60.003000 6.269000 447.368000
60.512000 6.269000 447.332000
61.019000 6.268000 447.283000
61.534000 6.268000 447.297000
62.046000 6.268000 447.284000
62.576000 6.270000 447.401000
63.082000 6.269000 447.343000
63.624000 6.272000 447.543000
64.135000 6.271000 447.526000
64.686000 6.275000 447.780000
65.217000 6.277000 447.899000
65.745000 6.278000 447.988000
66.284000 6.280000 448.156000
66.822000 6.282000 448.312000
67.371000 6.286000 448.544000
67.903000 6.287000 448.653000
68.457000 6.291000 448.906000
69.010000 6.294000 449.149000
69.571000 6.298000 449.445000
70.119000 6.301000 449.650000
70.714000 6.308000 450.149000
71.264000 6.311000 450.361000
71.863000 6.318000 450.874000
72.431000 6.323000 451.187000
73.048000 6.331000 451.795000
73.629000 6.337000 452.182000
74.270000 6.347000 452.921000
74.870000 6.354000 453.404000
75.544000 6.367000 454.332000
76.182000 6.377000 455.023000
94.588000 7.505000 535.572000
95.302000 7.513000 536.132000
95.962000 7.517000 536.378000
96.662000 7.523000 536.845000
97.375000 7.531000 537.377000
98.067000 7.536000 537.789000
98.745000 7.541000 538.119000
99.425000 7.546000 538.454000
47.713000 6.862000 452.611000
48.170000 6.853000 452.016000
48.654000 6.849000 451.698000
49.132000 6.843000 451.323000
49.610000 6.837000 450.952000
50.085000 6.831000 450.566000
50.577000 6.828000 450.343000
51.047000 6.822000 449.928000
51.541000 6.819000 449.733000
52.019000 6.814000 449.397000
52.517000 6.811000 449.248000
52.995000 6.806000 448.922000
53.496000 6.805000 448.801000
53.979000 6.801000 448.533000
54.478000 6.799000 448.402000
54.965000 6.795000 448.172000
55.468000 6.794000 448.085000
55.963000 6.791000 447.928000
56.461000 6.789000 447.795000
56.965000 6.788000 447.712000
57.454000 6.785000 447.519000
57.974000 6.786000 447.566000
58.469000 6.784000 447.423000
58.978000 6.783000 447.385000
59.482000 6.782000 447.311000
59.992000 6.782000 447.287000
60.500000 6.781000 447.247000
61.003000 6.780000 447.165000
61.519000 6.780000 447.184000
62.030000 6.780000 447.170000
62.558000 6.781000 447.271000
63.069000 6.781000 447.252000
63.602000 6.783000 447.391000
64.131000 6.785000 447.498000
64.681000 6.789000 447.746000
65.209000 6.790000 447.840000
65.738000 6.792000 447.943000
66.274000 6.794000 448.088000
66.807000 6.796000 448.210000
67.362000 6.800000 448.480000
67.892000 6.801000 448.581000
68.441000 6.805000 448.804000
68.991000 6.808000 449.030000
69.559000 6.813000 449.367000
70.109000 6.817000 449.584000
70.702000 6.824000 450.072000
71.248000 6.827000 450.259000
71.856000 6.835000 450.831000
72.421000 6.840000 451.123000
73.038000 6.849000 451.734000
73.606000 6.854000 452.040000
74.253000 6.866000 452.817000
74.850000 6.873000 453.288000
75.521000 6.886000 454.188000
76.160000 6.897000 454.893000
97.555000 8.163000 538.376000
98.269000 8.171000 538.897000
98.950000 8.176000 539.238000
99.628000 8.181000 539.556000
47.702000 7.380000 452.508000
48.163000 7.371000 451.951000
48.647000 7.366000 451.632000
49.125000 7.360000 451.255000
49.603000 7.354000 450.891000
50.079000 7.348000 450.517000
50.571000 7.344000 450.290000
51.042000 7.338000 449.882000
51.531000 7.334000 449.648000
52.012000 7.329000 449.341000
52.510000 7.326000 449.189000
52.989000 7.321000 448.878000
53.491000 7.319000 448.760000
53.972000 7.315000 448.476000
54.474000 7.313000 448.371000
54.956000 7.309000 448.099000
55.462000 7.308000 448.036000
55.957000 7.305000 447.879000
56.454000 7.303000 447.738000
56.958000 7.301000 447.664000
57.450000 7.299000 447.488000
57.966000 7.299000 447.503000
58.465000 7.297000 447.389000
58.971000 7.296000 447.332000
59.478000 7.295000 447.284000
59.978000 7.294000 447.182000
60.489000 7.293000 447.166000
60.991000 7.292000 447.079000
61.503000 7.292000 447.073000
62.015000 7.292000 447.062000
62.536000 7.293000 447.117000
63.055000 7.293000 447.155000
63.590000 7.296000 447.308000
64.120000 7.297000 447.418000
64.680000 7.303000 447.740000
65.205000 7.304000 447.813000
65.735000 7.306000 447.920000
66.267000 7.308000 448.045000
66.800000 7.310000 448.169000
67.346000 7.313000 448.372000
67.883000 7.315000 448.524000
68.433000 7.319000 448.753000
68.976000 7.322000 448.929000
69.554000 7.329000 449.338000
70.102000 7.332000 449.538000
70.691000 7.340000 450.001000
71.224000 7.341000 450.109000
71.842000 7.352000 450.743000
72.407000 7.356000 451.038000
73.021000 7.366000 451.630000
73.592000 7.371000 451.952000
74.236000 7.384000 452.718000
74.834000 7.392000 453.189000
75.506000 7.406000 454.103000
76.122000 7.416000 454.668000
98.416000 8.803000 539.703000
99.109000 8.809000 540.103000
99.781000 8.814000 540.387000
47.697000 7.899000 452.460000
48.157000 7.889000 451.899000
48.638000 7.883000 451.546000
49.119000 7.877000 451.204000
49.595000 7.871000 450.823000
50.069000 7.864000 450.424000
50.564000 7.860000 450.233000
51.033000 7.853000 449.810000
51.526000 7.849000 449.597000
52.008000 7.844000 449.304000
52.500000 7.841000 449.103000
52.986000 7.836000 448.845000
53.487000 7.834000 448.731000
53.967000 7.829000 448.438000
54.469000 7.827000 448.330000
54.951000 7.822000 448.057000
55.454000 7.821000 447.968000
55.949000 7.818000 447.812000
56.450000 7.816000 447.705000
56.951000 7.814000 447.607000
57.447000 7.812000 447.463000
57.958000 7.812000 447.445000
58.463000 7.811000 447.380000
58.972000 7.810000 447.342000
59.476000 7.809000 447.267000
59.973000 7.806000 447.143000
60.479000 7.805000 447.090000
60.978000 7.804000 446.988000
61.485000 7.803000 446.940000
62.002000 7.803000 446.966000
62.522000 7.804000 447.016000
63.042000 7.805000 447.060000
63.576000 7.807000 447.206000
64.110000 7.810000 447.348000
64.678000 7.817000 447.725000
65.202000 7.818000 447.794000
65.729000 7.819000 447.882000
66.269000 7.822000 448.055000
66.796000 7.824000 448.141000
67.338000 7.827000 448.320000
67.878000 7.830000 448.487000
68.429000 7.834000 448.722000
68.971000 7.837000 448.900000
69.545000 7.844000 449.275000
70.092000 7.847000 449.479000
70.684000 7.856000 449.958000
71.220000 7.858000 450.079000
71.833000 7.868000 450.684000
72.403000 7.874000 451.014000
73.008000 7.883000 451.553000
73.585000 7.890000 451.910000
74.225000 7.902000 452.648000
74.819000 7.910000 453.096000
75.478000 7.925000 453.935000
76.117000 7.937000 454.633000
98.614000 9.441000 540.789000
99.310000 9.448000 541.200000
100.001000 9.455000 541.578000
100.694000 9.462000 541.958000
46.744000 8.434000 453.291000
47.208000 8.424000 452.755000
47.696000 8.419000 452.451000
48.154000 8.408000 451.868000
48.634000 8.401000 451.507000
49.114000 8.395000 451.157000
49.592000 8.388000 450.791000
50.064000 8.380000 450.385000
50.562000 8.377000 450.207000
51.029000 8.369000 449.773000
51.525000 8.365000 449.588000
52.006000 8.360000 449.288000
52.498000 8.356000 449.085000
52.983000 8.351000 448.820000
53.480000 8.348000 448.672000
53.965000 8.343000 448.414000
54.465000 8.341000 448.299000
54.947000 8.336000 448.027000
55.450000 8.335000 447.939000
55.946000 8.332000 447.792000
56.447000 8.330000 447.681000
56.951000 8.328000 447.602000
57.446000 8.326000 447.454000
57.960000 8.326000 447.457000
58.468000 8.325000 447.414000
58.979000 8.324000 447.391000
59.476000 8.322000 447.271000
59.975000 8.320000 447.161000
60.467000 8.317000 447.002000
60.967000 8.315000 446.904000
61.475000 8.315000 446.867000
61.993000 8.315000 446.902000
62.511000 8.316000 446.939000
63.028000 8.316000 446.962000
63.560000 8.319000 447.096000
64.102000 8.323000 447.296000
