76.088000 -6.870000 433.644000
76.626000 -6.873000 433.871000
77.216000 -6.881000 434.390000
77.776000 -6.887000 434.731000
78.382000 -6.896000 435.323000
78.947000 -6.902000 435.684000
79.578000 -6.913000 436.396000
80.178000 -6.922000 436.940000
80.824000 -6.934000 437.718000
53.950000 -6.404000 435.818000
54.388000 -6.396000 435.320000
54.847000 -6.391000 434.993000
55.299000 -6.386000 434.618000
55.761000 -6.382000 434.336000
56.211000 -6.376000 433.957000
56.680000 -6.373000 433.733000
57.132000 -6.368000 433.385000
57.606000 -6.365000 433.202000
58.065000 -6.361000 432.915000
58.540000 -6.359000 432.758000
58.998000 -6.354000 432.469000
59.479000 -6.353000 432.354000
59.937000 -6.349000 432.079000
60.418000 -6.347000 431.972000
60.891000 -6.345000 431.808000
61.367000 -6.343000 431.671000
61.844000 -6.341000 431.540000
62.313000 -6.338000 431.356000
62.807000 -6.338000 431.344000
63.280000 -6.336000 431.196000
63.769000 -6.335000 431.154000
64.255000 -6.334000 431.092000
64.745000 -6.334000 431.057000
65.234000 -6.333000 431.021000
65.728000 -6.333000 431.011000
66.219000 -6.333000 430.985000
66.712000 -6.332000 430.978000
67.210000 -6.333000 430.996000
67.707000 -6.333000 431.010000
68.213000 -6.334000 431.080000
68.714000 -6.334000 431.117000
69.220000 -6.335000 431.187000
69.741000 -6.338000 431.343000
70.244000 -6.339000 431.394000
70.759000 -6.340000 431.515000
71.273000 -6.342000 431.626000
71.812000 -6.346000 431.887000
72.321000 -6.347000 431.962000
72.862000 -6.351000 432.227000
73.377000 -6.352000 432.338000
73.924000 -6.357000 432.636000
74.443000 -6.359000 432.762000
75.016000 -6.365000 433.203000
75.524000 -6.366000 433.264000
76.117000 -6.374000 433.808000
76.651000 -6.377000 434.015000
77.243000 -6.385000 434.539000
77.811000 -6.390000 434.923000
78.428000 -6.400000 435.575000
78.990000 -6.405000 435.917000
79.623000 -6.416000 436.646000
80.224000 -6.424000 437.186000
80.867000 -6.435000 437.953000
53.970000 -5.905000 435.980000
54.405000 -5.898000 435.453000
54.867000 -5.894000 435.150000
55.317000 -5.889000 434.765000
55.781000 -5.885000 434.489000
56.231000 -5.880000 434.112000
56.701000 -5.877000 433.895000
57.154000 -5.872000 433.551000
57.623000 -5.869000 433.330000
58.086000 -5.866000 433.075000
58.555000 -5.863000 432.866000
59.017000 -5.860000 432.608000
59.495000 -5.858000 432.474000
59.955000 -5.854000 432.207000
60.441000 -5.853000 432.139000
60.910000 -5.851000 431.942000
61.391000 -5.849000 431.839000
61.861000 -5.847000 431.660000
62.331000 -5.844000 431.476000
62.828000 -5.844000 431.490000
63.302000 -5.843000 431.347000
63.790000 -5.842000 431.294000
64.279000 -5.841000 431.255000
64.770000 -5.841000 431.224000
65.257000 -5.840000 431.173000
65.747000 -5.840000 431.139000
66.240000 -5.840000 431.124000
66.733000 -5.839000 431.112000
67.233000 -5.840000 431.140000
67.727000 -5.840000 431.136000
68.237000 -5.841000 431.232000
68.737000 -5.841000 431.260000
69.247000 -5.843000 431.351000
69.755000 -5.844000 431.431000
70.267000 -5.845000 431.535000
70.787000 -5.847000 431.683000
71.302000 -5.849000 431.802000
71.840000 -5.852000 432.053000
72.333000 -5.852000 432.035000
72.882000 -5.856000 432.348000
73.405000 -5.858000 432.507000
73.956000 -5.863000 432.825000
74.472000 -5.864000 432.934000
75.045000 -5.870000 433.373000
75.560000 -5.871000 433.474000
76.151000 -5.878000 434.000000
76.695000 -5.882000 434.263000
77.276000 -5.888000 434.725000
77.844000 -5.894000 435.112000
78.450000 -5.902000 435.701000
79.038000 -5.908000 436.182000
79.676000 -5.918000 436.938000
80.284000 -5.926000 437.513000
53.991000 -5.407000 436.150000
54.431000 -5.401000 435.662000
54.893000 -5.397000 435.363000
55.345000 -5.392000 434.984000
55.802000 -5.388000 434.655000
56.260000 -5.384000 434.335000
56.723000 -5.381000 434.064000
57.178000 -5.377000 433.732000
57.646000 -5.374000 433.510000
58.109000 -5.371000 433.244000
58.575000 -5.368000 433.014000
59.041000 -5.365000 432.787000
59.519000 -5.363000 432.651000
59.976000 -5.360000 432.359000
60.466000 -5.359000 432.316000
60.931000 -5.356000 432.092000
61.412000 -5.355000 431.983000
61.884000 -5.353000 431.817000
62.361000 -5.351000 431.688000
62.846000 -5.351000 431.617000
63.330000 -5.350000 431.534000
63.821000 -5.349000 431.503000
64.304000 -5.348000 431.419000
64.795000 -5.348000 431.394000
65.279000 -5.347000 431.314000
65.766000 -5.346000 431.264000
66.271000 -5.347000 431.326000
66.764000 -5.347000 431.311000
67.260000 -5.347000 431.315000
67.748000 -5.346000 431.271000
68.264000 -5.348000 431.400000
68.764000 -5.348000 431.432000
69.274000 -5.349000 431.518000
69.784000 -5.350000 431.609000
70.288000 -5.351000 431.660000
70.821000 -5.354000 431.890000
71.329000 -5.355000 431.963000
71.864000 -5.358000 432.200000
72.371000 -5.359000 432.264000
72.922000 -5.363000 432.584000
73.438000 -5.364000 432.702000
74.000000 -5.369000 433.082000
74.510000 -5.370000 433.155000
75.093000 -5.376000 433.648000
75.604000 -5.377000 433.721000
76.192000 -5.383000 434.239000
76.740000 -5.387000 434.519000
77.333000 -5.393000 435.044000
77.895000 -5.397000 435.392000
78.506000 -5.405000 436.011000
79.082000 -5.410000 436.427000
79.716000 -5.419000 437.154000
80.328000 -5.427000 437.755000
53.566000 -4.913000 436.769000
54.016000 -4.908000 436.354000
54.459000 -4.903000 435.890000
54.920000 -4.899000 435.574000
55.367000 -4.895000 435.159000
55.825000 -4.891000 434.830000
56.282000 -4.887000 434.504000
56.746000 -4.884000 434.241000
57.202000 -4.881000 433.915000
57.673000 -4.878000 433.709000
58.132000 -4.875000 433.418000
58.599000 -4.873000 433.195000
59.066000 -4.870000 432.972000
59.545000 -4.869000 432.834000
60.005000 -4.866000 432.569000
60.488000 -4.865000 432.469000
60.950000 -4.862000 432.225000
61.439000 -4.861000 432.175000
61.911000 -4.859000 432.009000
62.393000 -4.858000 431.907000
62.869000 -4.857000 431.771000
63.358000 -4.856000 431.729000
63.849000 -4.856000 431.694000
64.328000 -4.855000 431.584000
64.818000 -4.854000 431.545000
65.303000 -4.853000 431.474000
65.794000 -4.853000 431.448000
66.292000 -4.853000 431.461000
66.791000 -4.853000 431.485000
67.287000 -4.854000 431.488000
67.776000 -4.853000 431.450000
68.283000 -4.854000 431.518000
68.795000 -4.855000 431.626000
69.300000 -4.856000 431.680000
69.816000 -4.857000 431.810000
70.316000 -4.857000 431.833000
70.850000 -4.860000 432.069000
71.357000 -4.861000 432.131000
71.891000 -4.863000 432.362000
72.404000 -4.864000 432.457000
72.953000 -4.868000 432.770000
73.466000 -4.869000 432.865000
74.023000 -4.873000 433.214000
74.535000 -4.874000 433.302000
75.134000 -4.880000 433.883000
75.657000 -4.882000 434.027000
76.232000 -4.887000 434.466000
76.789000 -4.891000 434.794000
77.382000 -4.897000 435.322000
77.940000 -4.900000 435.648000
78.544000 -4.907000 436.223000
79.142000 -4.913000 436.760000
79.774000 -4.921000 437.471000
80.395000 -4.928000 438.117000
54.046000 -4.410000 436.595000
54.486000 -4.405000 436.105000
54.951000 -4.402000 435.816000
55.393000 -4.397000 435.359000
55.855000 -4.394000 435.069000
56.309000 -4.391000 434.715000
56.775000 -4.388000 434.463000
57.227000 -4.384000 434.107000
57.702000 -4.383000 433.928000
58.160000 -4.380000 433.629000
58.631000 -4.378000 433.427000
59.101000 -4.376000 433.227000
59.568000 -4.373000 433.007000
60.038000 -4.371000 432.804000
60.518000 -4.370000 432.683000
60.981000 -4.368000 432.444000
61.475000 -4.368000 432.426000
61.936000 -4.365000 432.182000
62.429000 -4.365000 432.156000
62.902000 -4.363000 431.999000
63.387000 -4.362000 431.921000
63.878000 -4.362000 431.888000
64.359000 -4.361000 431.792000
64.847000 -4.361000 431.739000
65.335000 -4.360000 431.684000
65.828000 -4.360000 431.672000
66.324000 -4.360000 431.668000
66.816000 -4.360000 431.647000
67.312000 -4.360000 431.652000
67.817000 -4.360000 431.710000
68.318000 -4.361000 431.741000
68.831000 -4.362000 431.852000
69.332000 -4.362000 431.884000
69.853000 -4.364000 432.038000
70.346000 -4.363000 432.018000
70.879000 -4.366000 432.246000
71.386000 -4.366000 432.310000
71.941000 -4.370000 432.661000
72.433000 -4.370000 432.631000
72.989000 -4.373000 432.981000
73.495000 -4.374000 433.033000
74.066000 -4.378000 433.464000
74.569000 -4.378000 433.499000
75.167000 -4.384000 434.078000
75.708000 -4.387000 434.322000
76.278000 -4.391000 434.726000
76.828000 -4.394000 435.012000
77.434000 -4.400000 435.615000
77.991000 -4.403000 435.932000
78.610000 -4.410000 436.591000
79.205000 -4.415000 437.107000
79.857000 -4.423000 437.927000
80.476000 -4.429000 438.561000
54.074000 -3.910000 436.819000
54.518000 -3.906000 436.360000
54.981000 -3.903000 436.059000
55.424000 -3.899000 435.600000
55.887000 -3.897000 435.312000
56.338000 -3.893000 434.934000
56.803000 -3.891000 434.673000
57.257000 -3.888000 434.333000
57.730000 -3.886000 434.136000
58.188000 -3.884000 433.839000
58.657000 -3.882000 433.620000
59.135000 -3.880000 433.475000
59.598000 -3.878000 433.223000
60.073000 -3.877000 433.060000
60.545000 -3.875000 432.882000
61.011000 -3.873000 432.657000
61.502000 -3.873000 432.620000
61.962000 -3.870000 432.365000
62.462000 -3.871000 432.387000
62.931000 -3.869000 432.200000
63.418000 -3.868000 432.133000
63.902000 -3.868000 432.051000
64.391000 -3.867000 432.001000
64.879000 -3.867000 431.953000
65.363000 -3.866000 431.871000
65.866000 -3.866000 431.919000
66.354000 -3.866000 431.866000
66.852000 -3.866000 431.876000
67.341000 -3.866000 431.832000
67.861000 -3.867000 431.986000
68.355000 -3.867000 431.976000
68.872000 -3.868000 432.108000
69.362000 -3.868000 432.072000
69.894000 -3.870000 432.292000
70.381000 -3.869000 432.235000
70.919000 -3.872000 432.487000
71.424000 -3.872000 432.541000
71.970000 -3.875000 432.832000
72.470000 -3.875000 432.854000
73.031000 -3.878000 433.233000
73.549000 -3.879000 433.354000
74.103000 -3.882000 433.686000
74.615000 -3.883000 433.767000
75.210000 -3.888000 434.327000
75.760000 -3.891000 434.620000
76.314000 -3.893000 434.934000
76.875000 -3.897000 435.280000
77.491000 -3.902000 435.932000
78.062000 -3.906000 436.328000
78.677000 -3.912000 436.959000
79.275000 -3.916000 437.494000
79.930000 -3.924000 438.328000
80.551000 -3.930000 438.971000
54.107000 -3.411000 437.086000
54.557000 -3.408000 436.673000
55.017000 -3.405000 436.343000
55.458000 -3.401000 435.871000
55.925000 -3.399000 435.612000
56.372000 -3.396000 435.200000
56.835000 -3.394000 434.916000
57.291000 -3.391000 434.588000
57.763000 -3.390000 434.383000
58.224000 -3.388000 434.104000
58.695000 -3.386000 433.900000
59.167000 -3.384000 433.706000
59.629000 -3.382000 433.447000
60.106000 -3.381000 433.295000
60.578000 -3.380000 433.118000
61.048000 -3.378000 432.925000
61.535000 -3.378000 432.849000
62.003000 -3.376000 432.645000
62.493000 -3.376000 432.599000
62.966000 -3.375000 432.439000
63.453000 -3.374000 432.370000
63.933000 -3.373000 432.264000
64.423000 -3.373000 432.221000
64.914000 -3.373000 432.187000
65.400000 -3.372000 432.115000
65.901000 -3.372000 432.145000
66.387000 -3.372000 432.083000
66.896000 -3.372000 432.164000
67.382000 -3.372000 432.100000
67.905000 -3.373000 432.270000
68.390000 -3.373000 432.197000
68.917000 -3.374000 432.390000
69.402000 -3.374000 432.320000
69.933000 -3.375000 432.530000
70.431000 -3.375000 432.541000
70.962000 -3.377000 432.751000
71.468000 -3.377000 432.807000
72.024000 -3.380000 433.158000
72.528000 -3.380000 433.202000
73.080000 -3.383000 433.522000
73.593000 -3.384000 433.610000
74.160000 -3.387000 434.020000
74.681000 -3.388000 434.151000
75.261000 -3.392000 434.617000
75.806000 -3.394000 434.884000
76.381000 -3.397000 435.311000
76.931000 -3.399000 435.598000
77.551000 -3.404000 436.272000
78.120000 -3.407000 436.650000
78.751000 -3.413000 437.374000
79.344000 -3.417000 437.872000
80.006000 -3.424000 438.745000
80.619000 -3.428000 439.341000
25.252000 -3.419000 513.742000
25.842000 -3.419000 513.753000
53.699000 -2.914000 437.851000
54.150000 -2.911000 437.435000
54.598000 -2.908000 437.000000
55.049000 -2.906000 436.595000
55.495000 -2.903000 436.163000
55.952000 -2.900000 435.821000
56.406000 -2.898000 435.460000
56.869000 -2.896000 435.177000
57.329000 -2.894000 434.876000
57.801000 -2.893000 434.671000
58.258000 -2.891000 434.358000
58.730000 -2.889000 434.159000
59.194000 -2.888000 433.906000
59.664000 -2.886000 433.703000
60.139000 -2.885000 433.535000
60.608000 -2.884000 433.330000
61.085000 -2.883000 433.182000
61.557000 -2.882000 433.004000
62.040000 -2.881000 432.902000
62.527000 -2.881000 432.836000
62.997000 -2.879000 432.651000
63.486000 -2.879000 432.600000
63.971000 -2.879000 432.517000
64.457000 -2.878000 432.444000
64.949000 -2.878000 432.419000
65.431000 -2.877000 432.320000
65.935000 -2.878000 432.368000
66.419000 -2.877000 432.286000
66.935000 -2.878000 432.414000
67.418000 -2.877000 432.331000
67.941000 -2.878000 432.497000
68.429000 -2.878000 432.445000
68.955000 -2.879000 432.629000
69.438000 -2.879000 432.543000
69.966000 -2.880000 432.739000
70.468000 -2.880000 432.767000
71.009000 -2.882000 433.037000
71.510000 -2.882000 433.062000
72.063000 -2.884000 433.392000
72.575000 -2.885000 433.481000
73.124000 -2.887000 433.783000
73.632000 -2.887000 433.844000
74.200000 -2.890000 434.251000
74.728000 -2.891000 434.421000
75.316000 -2.895000 434.935000
75.859000 -2.896000 435.184000
76.444000 -2.899000 435.672000
76.990000 -2.901000 435.934000
77.604000 -2.905000 436.567000
78.189000 -2.909000 437.037000
78.808000 -2.913000 437.691000
79.444000 -2.918000 438.422000
80.073000 -2.922000 439.111000
80.727000 -2.928000 439.927000
54.639000 -2.408000 437.332000
55.084000 -2.406000 436.877000
55.532000 -2.404000 436.456000
55.992000 -2.402000 436.131000
56.447000 -2.400000 435.781000
56.912000 -2.398000 435.509000
57.370000 -2.397000 435.190000
57.839000 -2.395000 434.956000
58.290000 -2.393000 434.596000
58.773000 -2.393000 434.480000
59.230000 -2.391000 434.173000
59.707000 -2.390000 434.015000
60.176000 -2.389000 433.804000
60.644000 -2.388000 433.589000
61.132000 -2.387000 433.516000
61.593000 -2.386000 433.261000
62.083000 -2.386000 433.206000
62.560000 -2.385000 433.063000
63.037000 -2.384000 432.922000
63.527000 -2.384000 432.876000
64.012000 -2.383000 432.794000
64.497000 -2.383000 432.718000
64.986000 -2.383000 432.660000
65.474000 -2.382000 432.605000
65.977000 -2.383000 432.648000
66.462000 -2.382000 432.566000
66.977000 -2.383000 432.685000
67.462000 -2.382000 432.609000
67.984000 -2.383000 432.773000
68.471000 -2.383000 432.711000
69.000000 -2.384000 432.913000
69.489000 -2.384000 432.861000
70.015000 -2.385000 433.041000
70.522000 -2.385000 433.098000
71.050000 -2.386000 433.288000
71.569000 -2.387000 433.414000
72.117000 -2.388000 433.721000
72.624000 -2.389000 433.772000
73.173000 -2.390000 434.076000
73.688000 -2.391000 434.169000
74.252000 -2.393000 434.554000
74.789000 -2.394000 434.777000
75.381000 -2.397000 435.309000
75.909000 -2.398000 435.474000
76.521000 -2.402000 436.111000
77.075000 -2.403000 436.412000
77.684000 -2.407000 437.022000
78.259000 -2.409000 437.431000
78.905000 -2.413000 438.226000
79.508000 -2.416000 438.777000
80.173000 -2.421000 439.660000
55.576000 -1.904000 436.800000
56.038000 -1.903000 436.492000
56.484000 -1.901000 436.064000
56.950000 -1.900000 435.802000
57.407000 -1.898000 435.469000
57.875000 -1.897000 435.230000
58.332000 -1.896000 434.908000
58.812000 -1.895000 434.765000
59.270000 -1.894000 434.460000
59.745000 -1.893000 434.292000
60.214000 -1.892000 434.074000
60.684000 -1.891000 433.876000
61.164000 -1.891000 433.746000
61.630000 -1.890000 433.518000
62.120000 -1.889000 433.467000
62.594000 -1.889000 433.298000
63.077000 -1.888000 433.199000
63.562000 -1.888000 433.116000
64.052000 -1.888000 433.067000
64.537000 -1.887000 432.984000
65.025000 -1.887000 432.924000
65.521000 -1.887000 432.918000
66.020000 -1.887000 432.926000
66.510000 -1.887000 432.881000
67.009000 -1.887000 432.896000
67.506000 -1.887000 432.895000
68.020000 -1.887000 433.001000
68.516000 -1.887000 432.994000
69.036000 -1.888000 433.136000
69.539000 -1.888000 433.172000
70.061000 -1.889000 433.323000
70.569000 -1.889000 433.390000
71.099000 -1.890000 433.583000
71.610000 -1.890000 433.664000
72.150000 -1.891000 433.919000
72.670000 -1.892000 434.049000
73.226000 -1.893000 434.392000
73.761000 -1.894000 434.603000
74.317000 -1.896000 434.936000
74.849000 -1.897000 435.122000
75.435000 -1.899000 435.621000
75.978000 -1.900000 435.871000
76.567000 -1.902000 436.374000
77.159000 -1.904000 436.887000
77.762000 -1.907000 437.460000
78.350000 -1.909000 437.935000
78.997000 -1.912000 438.740000
79.618000 -1.915000 439.383000
80.288000 -1.919000 440.294000
55.629000 -1.404000 437.215000
56.091000 -1.403000 436.907000
56.538000 -1.401000 436.478000
57.002000 -1.400000 436.198000
57.456000 -1.399000 435.843000
57.920000 -1.398000 435.565000
58.382000 -1.397000 435.284000
58.852000 -1.397000 435.062000
59.311000 -1.396000 434.762000
59.791000 -1.395000 434.628000
60.255000 -1.395000 434.370000
60.736000 -1.394000 434.243000
61.203000 -1.393000 434.022000
61.680000 -1.393000 433.870000
62.166000 -1.393000 433.788000
62.635000 -1.392000 433.583000
63.126000 -1.392000 433.539000
63.608000 -1.391000 433.427000
64.095000 -1.391000 433.359000
64.588000 -1.391000 433.324000
65.077000 -1.391000 433.268000
65.570000 -1.391000 433.240000
66.069000 -1.391000 433.248000
66.564000 -1.391000 433.230000
67.058000 -1.391000 433.207000
67.561000 -1.391000 433.248000
68.066000 -1.391000 433.297000
68.579000 -1.391000 433.390000
69.084000 -1.392000 433.438000
69.592000 -1.392000 433.503000
70.120000 -1.392000 433.690000
70.626000 -1.392000 433.735000
71.162000 -1.393000 433.968000
71.663000 -1.393000 433.985000
72.216000 -1.394000 434.312000
72.734000 -1.395000 434.429000
73.298000 -1.396000 434.819000
73.815000 -1.396000 434.923000
74.389000 -1.398000 435.355000
74.921000 -1.398000 435.544000
75.520000 -1.400000 436.114000
76.068000 -1.401000 436.385000
76.660000 -1.403000 436.903000
77.223000 -1.404000 437.251000
77.848000 -1.406000 437.944000
78.451000 -1.408000 438.501000
79.115000 -1.411000 439.391000
79.720000 -1.412000 439.948000
80.447000 -1.416000 441.166000
55.674000 -0.902000 437.567000
56.134000 -0.902000 437.240000
56.584000 -0.901000 436.837000
57.048000 -0.900000 436.549000
57.504000 -0.900000 436.202000
57.966000 -0.899000 435.913000
58.437000 -0.898000 435.695000
58.897000 -0.898000 435.398000
59.357000 -0.897000 435.105000
59.833000 -0.897000 434.932000
60.292000 -0.896000 434.641000
60.786000 -0.896000 434.601000
61.243000 -0.896000 434.301000
61.727000 -0.895000 434.204000
62.207000 -0.895000 434.069000
62.684000 -0.895000 433.922000
63.177000 -0.895000 433.886000
63.658000 -0.895000 433.771000
64.144000 -0.894000 433.685000
64.633000 -0.894000 433.628000
65.119000 -0.894000 433.547000
65.613000 -0.894000 433.526000
66.105000 -0.894000 433.486000
66.611000 -0.894000 433.542000
67.110000 -0.894000 433.543000
67.615000 -0.894000 433.592000
68.109000 -0.894000 433.569000
68.630000 -0.894000 433.712000
69.136000 -0.894000 433.765000
69.642000 -0.895000 433.813000
70.167000 -0.895000 433.980000
70.682000 -0.895000 434.082000
71.224000 -0.896000 434.348000
71.734000 -0.896000 434.415000
72.274000 -0.896000 434.661000
72.800000 -0.897000 434.822000
73.346000 -0.897000 435.101000
73.881000 -0.898000 435.309000
74.465000 -0.899000 435.800000
75.004000 -0.899000 436.026000
75.583000 -0.900000 436.480000
76.154000 -0.901000 436.878000
76.742000 -0.902000 437.370000
77.314000 -0.903000 437.768000
77.941000 -0.904000 438.464000
78.546000 -0.905000 439.036000
79.202000 -0.907000 439.876000
79.861000 -0.909000 440.725000
80.574000 -0.911000 441.859000
55.734000 -0.400000 438.042000
56.191000 -0.400000 437.682000
56.640000 -0.400000 437.270000
57.105000 -0.399000 436.983000
57.557000 -0.399000 436.610000
58.022000 -0.399000 436.334000
58.486000 -0.399000 436.059000
58.948000 -0.398000 435.770000
59.413000 -0.398000 435.510000
59.884000 -0.398000 435.299000
60.351000 -0.398000 435.064000
60.836000 -0.398000 434.961000
61.293000 -0.397000 434.656000
61.782000 -0.397000 434.591000
62.254000 -0.397000 434.399000
62.739000 -0.397000 434.301000
63.225000 -0.397000 434.213000
63.713000 -0.397000 434.143000
64.197000 -0.397000 434.045000
64.678000 -0.397000 433.927000
65.177000 -0.397000 433.932000
65.671000 -0.397000 433.906000
66.169000 -0.397000 433.905000
66.658000 -0.396000 433.841000
67.168000 -0.397000 433.920000
67.666000 -0.397000 433.920000
68.177000 -0.397000 434.000000
68.678000 -0.397000 434.017000
69.204000 -0.397000 434.189000
69.706000 -0.397000 434.210000
70.237000 -0.397000 434.413000
70.739000 -0.397000 434.433000
71.282000 -0.397000 434.698000
71.799000 -0.397000 434.811000
72.341000 -0.398000 435.068000
72.864000 -0.398000 435.209000
73.430000 -0.398000 435.597000
73.958000 -0.398000 435.762000
74.543000 -0.399000 436.256000
75.082000 -0.399000 436.480000
75.673000 -0.399000 436.996000
76.250000 -0.400000 437.429000
76.871000 -0.400000 438.105000
77.438000 -0.401000 438.470000
78.074000 -0.401000 439.212000
78.678000 -0.402000 439.769000
79.353000 -0.403000 440.712000
79.972000 -0.403000 441.341000
80.761000 -0.405000 442.884000
55.793000 0.103000 438.504000
56.246000 0.103000 438.114000
56.697000 0.103000 437.707000
57.156000 0.103000 437.374000
57.607000 0.102000 436.983000
58.072000 0.102000 436.710000
58.528000 0.102000 436.369000
59.004000 0.102000 436.185000
59.473000 0.102000 435.953000
59.936000 0.102000 435.682000
60.409000 0.102000 435.482000
60.875000 0.102000 435.241000
61.352000 0.102000 435.077000
61.835000 0.102000 434.961000
62.305000 0.102000 434.754000
62.797000 0.102000 434.705000
63.277000 0.102000 434.571000
63.755000 0.102000 434.430000
64.242000 0.102000 434.349000
64.726000 0.102000 434.250000
65.228000 0.102000 434.273000
65.723000 0.102000 434.248000
66.230000 0.102000 434.307000
66.711000 0.102000 434.192000
67.220000 0.102000 434.258000
67.714000 0.102000 434.227000
68.242000 0.102000 434.411000
68.733000 0.102000 434.364000
69.270000 0.102000 434.608000
69.768000 0.102000 434.599000
70.305000 0.102000 434.831000
70.809000 0.102000 434.864000
71.340000 0.102000 435.058000
71.858000 0.102000 435.168000
72.415000 0.102000 435.514000
72.927000 0.102000 435.583000
73.502000 0.102000 436.025000
74.039000 0.102000 436.239000
74.605000 0.102000 436.620000
75.160000 0.102000 436.932000
75.758000 0.103000 437.487000
76.347000 0.103000 437.984000
76.936000 0.103000 438.479000
77.526000 0.103000 438.966000
78.175000 0.103000 439.782000
78.805000 0.103000 440.482000
79.455000 0.103000 441.281000
80.245000 0.104000 442.842000
80.890000 0.104000 443.594000
81.383000 0.104000 443.502000
56.309000 0.606000 438.605000
56.762000 0.606000 438.210000
57.218000 0.605000 437.853000
57.671000 0.605000 437.473000
58.137000 0.604000 437.200000
58.586000 0.604000 436.806000
59.069000 0.604000 436.669000
59.524000 0.603000 436.328000
59.988000 0.603000 436.054000
60.469000 0.603000 435.918000
60.924000 0.602000 435.592000
61.412000 0.602000 435.503000
61.889000 0.602000 435.343000
62.366000 0.602000 435.182000
62.856000 0.602000 435.113000
63.337000 0.601000 434.985000
63.817000 0.601000 434.856000
64.307000 0.601000 434.791000
64.792000 0.601000 434.692000
65.301000 0.601000 434.763000
65.782000 0.601000 434.640000
66.297000 0.601000 434.743000
66.769000 0.601000 434.569000
67.292000 0.601000 434.720000
67.777000 0.601000 434.628000
68.312000 0.601000 434.862000
68.803000 0.601000 434.808000
69.342000 0.602000 435.058000
69.835000 0.601000 435.015000
70.370000 0.602000 435.236000
70.883000 0.602000 435.314000
71.424000 0.602000 435.566000
71.930000 0.602000 435.602000
72.502000 0.603000 436.035000
73.027000 0.603000 436.178000
73.594000 0.604000 436.575000
74.134000 0.604000 436.799000
74.706000 0.605000 437.214000
75.252000 0.605000 437.466000
75.876000 0.606000 438.170000
76.443000 0.606000 438.535000
77.065000 0.607000 439.212000
77.652000 0.608000 439.682000
78.332000 0.609000 440.668000
78.934000 0.610000 441.201000
79.660000 0.612000 442.422000
80.297000 0.613000 443.132000
80.850000 0.613000 443.375000
81.475000 0.614000 444.004000
56.819000 1.110000 438.648000
57.278000 1.109000 438.306000
57.731000 1.108000 437.930000
58.194000 1.108000 437.626000
58.652000 1.107000 437.294000
59.120000 1.106000 437.046000
59.578000 1.105000 436.722000
60.055000 1.105000 436.544000
60.519000 1.104000 436.277000
60.985000 1.104000 436.024000
61.474000 1.103000 435.942000
61.948000 1.103000 435.754000
62.428000 1.102000 435.611000
62.909000 1.102000 435.483000
63.397000 1.102000 435.396000
63.878000 1.102000 435.269000
64.365000 1.101000 435.181000
64.862000 1.101000 435.167000
65.362000 1.101000 435.167000
65.846000 1.101000 435.064000
66.350000 1.101000 435.092000
66.841000 1.101000 435.035000
67.351000 1.101000 435.104000
67.839000 1.101000 435.031000
68.374000 1.102000 435.254000
68.878000 1.102000 435.283000
69.405000 1.102000 435.453000
69.907000 1.102000 435.462000
70.437000 1.103000 435.651000
70.960000 1.103000 435.786000
71.505000 1.104000 436.059000
72.015000 1.104000 436.119000
72.582000 1.105000 436.514000
73.103000 1.105000 436.631000
73.683000 1.106000 437.102000
74.230000 1.107000 437.366000
74.817000 1.108000 437.861000
75.356000 1.109000 438.073000
75.970000 1.110000 438.716000
76.571000 1.112000 439.271000
77.162000 1.113000 439.766000
77.800000 1.115000 440.516000
78.423000 1.117000 441.176000
58.727000 1.611000 437.857000
59.188000 1.610000 437.549000
59.655000 1.609000 437.287000
60.135000 1.608000 437.124000
60.583000 1.607000 436.736000
61.069000 1.606000 436.629000
61.539000 1.606000 436.405000
62.010000 1.605000 436.191000
62.497000 1.604000 436.095000
62.978000 1.604000 435.958000
63.468000 1.604000 435.883000
63.949000 1.603000 435.751000
64.436000 1.603000 435.662000
64.932000 1.603000 435.636000
65.429000 1.603000 435.610000
65.922000 1.603000 435.562000
66.413000 1.602000 435.506000
66.926000 1.603000 435.589000
67.422000 1.602000 435.559000
67.927000 1.603000 435.595000
68.438000 1.603000 435.662000
68.954000 1.603000 435.762000
69.479000 1.604000 435.917000
69.992000 1.604000 435.995000
70.530000 1.605000 436.225000
71.037000 1.605000 436.261000
71.591000 1.606000 436.585000
72.108000 1.607000 436.682000
72.683000 1.608000 437.120000
73.202000 1.609000 437.226000
73.803000 1.611000 437.809000
74.323000 1.611000 437.915000
74.939000 1.614000 438.575000
75.502000 1.615000 438.920000
76.146000 1.618000 439.730000
58.791000 2.116000 438.329000
59.254000 2.115000 438.034000
59.725000 2.113000 437.797000
60.195000 2.112000 437.562000
60.659000 2.111000 437.287000
61.138000 2.110000 437.119000
61.605000 2.109000 436.874000
62.085000 2.108000 436.722000
62.567000 2.108000 436.585000
63.048000 2.107000 436.442000
63.529000 2.106000 436.301000
64.013000 2.106000 436.188000
64.508000 2.105000 436.147000
65.003000 2.105000 436.110000
65.498000 2.105000 436.071000
65.989000 2.105000 436.010000
66.480000 2.104000 435.944000
66.991000 2.105000 436.009000
67.496000 2.105000 436.041000
67.999000 2.105000 436.053000
68.513000 2.105000 436.139000
69.031000 2.106000 436.247000
69.563000 2.107000 436.441000
70.068000 2.107000 436.468000
70.611000 2.108000 436.726000
71.126000 2.109000 436.808000
71.679000 2.110000 437.122000
72.219000 2.111000 437.354000
72.772000 2.113000 437.657000
73.294000 2.113000 437.774000
73.902000 2.116000 438.402000
74.455000 2.118000 438.692000
75.031000 2.120000 439.115000
75.642000 2.123000 439.736000
59.347000 2.622000 438.723000
59.812000 2.620000 438.434000
60.265000 2.618000 438.071000
60.751000 2.617000 437.949000
61.215000 2.615000 437.670000
61.689000 2.614000 437.465000
62.164000 2.613000 437.275000
62.642000 2.612000 437.109000
63.129000 2.611000 437.001000
63.610000 2.611000 436.857000
64.091000 2.610000 436.720000
64.596000 2.610000 436.745000
65.076000 2.609000 436.597000
65.579000 2.609000 436.608000
66.066000 2.609000 436.519000
66.577000 2.609000 436.582000
67.067000 2.608000 436.505000
67.592000 2.609000 436.659000
68.091000 2.609000 436.646000
68.622000 2.610000 436.832000
69.122000 2.610000 436.822000
69.656000 2.612000 437.024000
70.167000 2.612000 437.084000
70.721000 2.614000 437.405000
71.237000 2.614000 437.489000
71.795000 2.616000 437.827000
72.308000 2.617000 437.894000
72.894000 2.620000 438.390000
73.422000 2.621000 438.541000
74.041000 2.625000 439.226000
74.587000 2.626000 439.471000
75.224000 2.631000 440.241000
75.757000 2.632000 440.403000
83.659000 2.724000 455.907000
84.293000 2.728000 456.504000
84.907000 2.731000 456.988000
85.536000 2.734000 457.547000
86.195000 2.738000 458.256000
59.429000 3.130000 439.326000
59.887000 3.127000 438.987000
60.356000 3.126000 438.735000
60.828000 3.124000 438.502000
61.299000 3.122000 438.268000
61.777000 3.121000 438.091000
62.247000 3.119000 437.861000
62.728000 3.118000 437.706000
63.213000 3.117000 437.586000
63.695000 3.116000 437.442000
64.181000 3.116000 437.333000
64.676000 3.115000 437.284000
65.158000 3.114000 437.150000
65.662000 3.114000 437.163000
66.145000 3.113000 437.039000
66.668000 3.114000 437.176000
67.149000 3.113000 437.038000
67.680000 3.115000 437.230000
68.183000 3.115000 437.232000
68.718000 3.116000 437.445000
69.219000 3.116000 437.436000
69.756000 3.118000 437.656000
70.265000 3.118000 437.696000
70.819000 3.120000 438.011000
71.344000 3.121000 438.145000
71.900000 3.124000 438.468000
72.437000 3.125000 438.675000
73.003000 3.128000 439.049000
73.570000 3.130000 439.425000
74.168000 3.134000 439.979000
74.733000 3.137000 440.330000
75.351000 3.142000 440.990000
81.293000 3.237000 454.386000
81.847000 3.238000 454.566000
82.430000 3.241000 454.901000
83.036000 3.244000 455.362000
83.648000 3.247000 455.845000
84.267000 3.251000 456.365000
84.876000 3.254000 456.821000
85.504000 3.258000 457.375000
86.150000 3.263000 458.017000
59.520000 3.640000 439.999000
59.982000 3.637000 439.683000
60.461000 3.636000 439.498000
60.917000 3.633000 439.144000
61.398000 3.631000 438.982000
61.869000 3.629000 438.741000
62.348000 3.628000 438.568000
62.830000 3.627000 438.420000
63.306000 3.625000 438.227000
63.790000 3.624000 438.098000
64.285000 3.624000 438.042000
64.768000 3.622000 437.907000
65.263000 3.622000 437.856000
65.756000 3.622000 437.791000
66.256000 3.621000 437.768000
66.755000 3.621000 437.747000
67.273000 3.622000 437.849000
67.787000 3.623000 437.917000
68.295000 3.623000 437.952000
68.814000 3.624000 438.058000
69.332000 3.624000 438.151000
69.877000 3.627000 438.413000
70.384000 3.627000 438.438000
70.940000 3.630000 438.760000
71.460000 3.630000 438.860000
72.042000 3.634000 439.338000
72.578000 3.636000 439.527000
73.174000 3.640000 440.078000
73.715000 3.642000 440.287000
74.329000 3.647000 440.932000
74.899000 3.651000 441.310000
81.243000 3.756000 454.106000
81.843000 3.760000 454.542000
82.433000 3.763000 454.919000
83.044000 3.767000 455.405000
83.644000 3.771000 455.824000
84.237000 3.774000 456.201000
84.842000 3.777000 456.637000
85.478000 3.782000 457.236000
86.115000 3.787000 457.834000
86.732000 3.791000 458.313000
87.384000 3.797000 458.977000
88.054000 3.803000 459.724000
88.748000 3.810000 460.585000
89.431000 3.817000 461.381000
61.489000 4.142000 439.629000
61.958000 4.139000 439.377000
62.440000 4.138000 439.214000
62.923000 4.136000 439.070000
63.400000 4.134000 438.880000
63.882000 4.133000 438.726000
64.371000 4.132000 438.626000
64.862000 4.131000 438.539000
65.351000 4.130000 438.447000
65.857000 4.131000 438.465000
66.353000 4.130000 438.414000
66.856000 4.130000 438.409000
67.379000 4.131000 438.538000
67.896000 4.132000 438.623000
68.402000 4.132000 438.636000
68.924000 4.133000 438.754000
69.446000 4.134000 438.869000
69.993000 4.137000 439.139000
70.503000 4.137000 439.177000
71.075000 4.141000 439.596000
71.599000 4.142000 439.714000
72.181000 4.147000 440.182000
72.717000 4.148000 440.366000
80.700000 4.277000 453.984000
81.253000 4.278000 454.163000
81.852000 4.283000 454.597000
82.435000 4.286000 454.929000
83.032000 4.290000 455.341000
83.624000 4.293000 455.719000
84.217000 4.297000 456.093000
84.832000 4.301000 456.584000
85.463000 4.307000 457.157000
86.087000 4.312000 457.685000
86.704000 4.316000 458.167000
87.356000 4.322000 458.830000
87.984000 4.327000 459.354000
88.664000 4.335000 460.146000
89.324000 4.341000 460.824000
62.098000 4.654000 440.368000
62.566000 4.651000 440.099000
63.040000 4.649000 439.884000
63.516000 4.647000 439.684000
64.004000 4.646000 439.565000
64.491000 4.644000 439.443000
64.991000 4.644000 439.418000
65.468000 4.642000 439.233000
65.995000 4.644000 439.377000
66.464000 4.641000 439.145000
67.002000 4.644000 439.365000
67.490000 4.642000 439.262000
68.037000 4.645000 439.533000
68.529000 4.644000 439.454000
69.070000 4.647000 439.687000
69.580000 4.647000 439.718000
70.141000 4.651000 440.069000
70.657000 4.652000 440.135000
71.249000 4.657000 440.671000
71.779000 4.659000 440.817000
80.126000 4.795000 453.690000
80.710000 4.799000 454.041000
81.271000 4.801000 454.263000
81.865000 4.805000 454.664000
82.436000 4.808000 454.935000
83.023000 4.812000 455.289000
83.612000 4.816000 455.649000
84.209000 4.820000 456.049000
84.813000 4.824000 456.485000
85.427000 4.830000 456.964000
86.042000 4.835000 457.446000
86.669000 4.840000 457.981000
87.319000 4.847000 458.635000
87.945000 4.853000 459.153000
88.605000 4.860000 459.843000
89.268000 4.867000 460.538000
63.639000 5.162000 440.534000
64.126000 5.160000 440.401000
64.613000 5.159000 440.277000
65.110000 5.158000 440.222000
65.612000 5.158000 440.193000
66.107000 5.157000 440.124000
66.620000 5.158000 440.179000
67.128000 5.158000 440.192000
67.639000 5.158000 440.232000
68.150000 5.159000 440.262000
68.671000 5.160000 440.363000
69.208000 5.162000 440.563000
69.737000 5.164000 440.709000
70.288000 5.167000 440.989000
70.820000 5.169000 441.152000
71.393000 5.174000 441.562000
79.625000 5.317000 453.803000
80.141000 5.317000 453.775000
80.724000 5.321000 454.122000
81.287000 5.324000 454.356000
81.876000 5.328000 454.726000
82.440000 5.331000 454.957000
83.025000 5.335000 455.300000
83.611000 5.339000 455.645000
84.208000 5.343000 456.045000
84.809000 5.348000 456.464000
85.412000 5.353000 456.885000
86.019000 5.358000 457.322000
86.646000 5.365000 457.863000
87.295000 5.372000 458.506000
87.904000 5.377000 458.938000
88.566000 5.386000 459.636000
89.212000 5.393000 460.251000
89.905000 5.403000 461.091000
90.536000 5.409000 461.608000
77.505000 5.836000 453.592000
77.976000 5.832000 453.301000
78.534000 5.835000 453.520000
79.051000 5.834000 453.498000
79.640000 5.839000 453.889000
80.164000 5.840000 453.906000
80.749000 5.844000 454.264000
81.307000 5.847000 454.468000
81.882000 5.851000 454.763000
82.450000 5.854000 455.014000
83.031000 5.858000 455.333000
83.610000 5.862000 455.643000
84.203000 5.867000 456.017000
84.806000 5.872000 456.447000
85.409000 5.878000 456.866000
86.012000 5.883000 457.283000
86.627000 5.889000 457.761000
87.260000 5.897000 458.326000
87.875000 5.902000 458.787000
88.522000 5.910000 459.411000
89.168000 5.918000 460.020000
89.825000 5.927000 460.682000
90.487000 5.936000 461.360000
76.460000 6.356000 453.576000
76.950000 6.354000 453.393000
77.491000 6.355000 453.509000
77.996000 6.354000 453.420000
78.563000 6.358000 453.686000
79.077000 6.357000 453.646000
79.663000 6.362000 454.018000
80.191000 6.363000 454.057000
80.765000 6.367000 454.354000
81.321000 6.370000 454.542000
81.884000 6.373000 454.774000
82.464000 6.377000 455.091000
83.042000 6.382000 455.397000
83.617000 6.386000 455.679000
84.206000 6.391000 456.035000
84.808000 6.397000 456.458000
85.409000 6.402000 456.868000
86.004000 6.408000 457.240000
86.619000 6.414000 457.718000
87.253000 6.422000 458.285000
87.847000 6.427000 458.643000
88.497000 6.436000 459.283000
89.136000 6.444000 459.856000
89.779000 6.453000 460.448000
90.429000 6.461000 461.066000
44.068000 7.479000 493.254000
44.585000 7.470000 492.701000
45.122000 7.466000 492.390000
45.607000 7.452000 491.527000
76.469000 6.878000 453.626000
76.961000 6.875000 453.454000
77.526000 6.879000 453.716000
78.024000 6.877000 453.584000
78.593000 6.881000 453.863000
79.115000 6.881000 453.867000
79.683000 6.886000 454.135000
80.222000 6.887000 454.232000
80.784000 6.890000 454.461000
81.345000 6.894000 454.679000
81.901000 6.897000 454.866000
82.469000 6.900000 455.117000
83.041000 6.905000 455.387000
83.620000 6.909000 455.694000
84.204000 6.914000 456.025000
84.802000 6.920000 456.422000
85.408000 6.927000 456.863000
85.998000 6.932000 457.211000
86.607000 6.939000 457.651000
87.223000 6.946000 458.131000
87.820000 6.952000 458.500000
88.449000 6.960000 459.031000
89.078000 6.968000 459.557000
89.718000 6.976000 460.133000
90.377000 6.987000 460.798000
91.076000 7.000000 461.662000
91.703000 7.007000 462.147000
44.506000 8.022000 491.830000
45.080000 8.023000 491.934000
45.559000 8.008000 491.011000
46.144000 8.012000 491.233000
46.629000 7.999000 490.406000
47.190000 7.998000 490.378000
74.456000 7.406000 454.055000
74.950000 7.403000 453.891000
75.471000 7.403000 453.889000
75.958000 7.400000 453.685000
76.500000 7.402000 453.812000
76.997000 7.399000 453.671000
77.553000 7.403000 453.871000
78.056000 7.401000 453.766000
78.622000 7.405000 454.028000
79.151000 7.406000 454.075000
79.711000 7.410000 454.292000
80.252000 7.411000 454.401000
80.802000 7.414000 454.561000
81.363000 7.417000 454.777000
81.923000 7.421000 454.991000
82.488000 7.425000 455.222000
83.054000 7.429000 455.458000
83.627000 7.433000 455.736000
84.211000 7.438000 456.063000
84.802000 7.444000 456.426000
85.395000 7.450000 456.794000
85.994000 7.457000 457.189000
86.592000 7.463000 457.577000
87.210000 7.471000 458.060000
87.804000 7.477000 458.417000
88.435000 7.486000 458.959000
89.046000 7.493000 459.390000
89.695000 7.503000 460.017000
90.323000 7.511000 460.527000
91.016000 7.525000 461.358000
91.648000 7.533000 461.869000
92.345000 7.547000 462.707000
44.443000 8.574000 491.137000
45.044000 8.582000 491.543000
45.525000 8.566000 490.646000
46.096000 8.567000 490.725000
46.584000 8.553000 489.928000
47.135000 8.551000 489.813000
47.633000 8.540000 489.143000
48.191000 8.539000 489.111000
48.676000 8.526000 488.336000
49.228000 8.524000 488.251000
73.975000 7.931000 454.303000
74.483000 7.930000 454.221000
74.972000 7.926000 454.023000
75.505000 7.928000 454.093000
76.004000 7.925000 453.958000
76.541000 7.927000 454.054000
77.042000 7.925000 453.935000
77.590000 7.928000 454.090000
78.099000 7.926000 454.016000
78.651000 7.930000 454.195000
79.180000 7.930000 454.238000
79.738000 7.934000 454.445000
80.288000 7.937000 454.607000
80.829000 7.939000 454.711000
81.388000 7.942000 454.917000
81.947000 7.946000 455.121000
82.509000 7.949000 455.339000
83.070000 7.953000 455.550000
83.645000 7.958000 455.830000
84.226000 7.963000 456.141000
84.805000 7.969000 456.441000
85.392000 7.975000 456.778000
85.993000 7.982000 457.181000
86.588000 7.988000 457.554000
87.196000 7.996000 457.987000
87.791000 8.002000 458.348000
88.425000 8.012000 458.909000
89.031000 8.019000 459.315000
89.679000 8.030000 459.934000
90.306000 8.038000 460.436000
90.970000 8.050000 461.122000
91.594000 8.059000 461.601000
92.269000 8.071000 462.328000
44.408000 9.131000 490.753000
44.997000 9.136000 491.030000
45.481000 9.120000 490.168000
46.030000 9.118000 490.020000
46.527000 9.105000 489.333000
47.081000 9.103000 489.247000
47.570000 9.089000 488.500000
48.132000 9.090000 488.513000
48.619000 9.076000 487.769000
49.176000 9.075000 487.738000
49.665000 9.062000 487.045000
50.229000 9.063000 487.090000
50.712000 9.049000 486.356000
51.299000 9.054000 486.622000
51.777000 9.040000 485.864000
52.434000 9.057000 486.784000
52.943000 9.049000 486.327000
53.630000 9.071000 487.493000
54.104000 9.056000 486.726000
54.814000 9.081000 488.074000
55.365000 9.080000 487.984000
56.096000 9.108000 489.481000
56.629000 9.103000 489.224000
57.306000 9.121000 490.208000
57.827000 9.115000 489.861000
72.550000 8.469000 455.186000
73.013000 8.462000 454.810000
73.530000 8.462000 454.778000
74.014000 8.458000 454.546000
74.530000 8.457000 454.507000
75.020000 8.453000 454.315000
75.546000 8.454000 454.338000
76.042000 8.451000 454.188000
76.582000 8.453000 454.297000
77.088000 8.451000 454.205000
77.625000 8.453000 454.293000
78.140000 8.452000 454.255000
78.687000 8.455000 454.405000
79.216000 8.456000 454.445000
79.757000 8.458000 454.555000
80.312000 8.461000 454.741000
80.857000 8.464000 454.868000
81.415000 8.467000 455.071000
81.974000 8.471000 455.273000
82.531000 8.475000 455.462000
83.096000 8.479000 455.690000
83.664000 8.483000 455.933000
84.238000 8.488000 456.206000
84.816000 8.494000 456.499000
85.402000 8.500000 456.832000
85.994000 8.507000 457.189000
86.587000 8.513000 457.548000
87.191000 8.521000 457.960000
87.781000 8.527000 458.298000
88.419000 8.538000 458.878000
89.016000 8.545000 459.237000
89.656000 8.556000 459.818000
90.276000 8.564000 460.284000
90.943000 8.577000 460.988000
91.534000 8.583000 461.297000
92.225000 8.598000 462.107000
44.930000 9.686000 490.292000
45.438000 9.674000 489.700000
45.977000 9.669000 489.450000
46.468000 9.654000 488.710000
47.033000 9.655000 488.752000
47.519000 9.640000 487.973000
48.084000 9.641000 488.021000
48.570000 9.626000 487.273000
49.131000 9.626000 487.289000
49.617000 9.612000 486.568000
50.184000 9.614000 486.653000
50.665000 9.599000 485.907000
51.268000 9.607000 486.329000
51.778000 9.598000 485.877000
52.451000 9.620000 486.949000
52.946000 9.608000 486.356000
53.643000 9.633000 487.615000
54.146000 9.623000 487.108000
54.863000 9.650000 488.505000
55.419000 9.650000 488.467000
56.140000 9.677000 489.858000
56.651000 9.668000 489.415000
57.308000 9.684000 490.230000
57.856000 9.682000 490.105000
72.116000 9.003000 455.742000
72.606000 8.999000 455.535000
73.068000 8.991000 455.151000
73.579000 8.990000 455.081000
74.062000 8.985000 454.841000
74.581000 8.985000 454.820000
75.073000 8.981000 454.634000
75.595000 8.981000 454.637000
76.090000 8.978000 454.472000
76.618000 8.979000 454.511000
77.134000 8.978000 454.477000
77.661000 8.979000 454.506000
78.182000 8.979000 454.502000
78.723000 8.981000 454.609000
79.257000 8.982000 454.679000
79.788000 8.983000 454.731000
80.344000 8.987000 454.925000
80.881000 8.989000 455.007000
81.437000 8.992000 455.190000
81.993000 8.996000 455.378000
82.554000 9.000000 455.589000
83.121000 9.005000 455.826000
83.684000 9.009000 456.045000
84.251000 9.014000 456.281000
84.830000 9.020000 456.576000
85.416000 9.026000 456.902000
86.000000 9.032000 457.222000
86.594000 9.040000 457.583000
87.190000 9.047000 457.956000
87.776000 9.053000 458.269000
88.405000 9.064000 458.806000
88.999000 9.070000 459.148000
89.630000 9.081000 459.683000
90.258000 9.091000 460.194000
90.899000 9.102000 460.763000
91.487000 9.108000 461.058000
92.166000 9.123000 461.809000
45.931000 10.221000 488.963000
46.415000 10.204000 488.154000
46.986000 10.206000 488.260000
47.471000 10.190000 487.481000
48.030000 10.190000 487.479000
48.523000 10.176000 486.805000
49.080000 10.175000 486.787000
49.563000 10.160000 486.043000
50.133000 10.162000 486.160000
50.621000 10.148000 485.486000
51.230000 10.158000 485.971000
51.793000 10.159000 486.014000
52.475000 10.183000 487.169000
52.951000 10.167000 486.406000
53.666000 10.197000 487.826000
54.211000 10.194000 487.687000
54.915000 10.221000 488.969000
55.465000 10.219000 488.872000
56.164000 10.244000 490.072000
56.660000 10.232000 489.497000
57.323000 10.250000 490.353000
57.901000 10.253000 490.481000
71.697000 9.540000 456.406000
72.173000 9.534000 456.106000
72.658000 9.529000 455.861000
73.124000 9.521000 455.505000
73.632000 9.520000 455.411000
74.108000 9.514000 455.124000
74.630000 9.513000 455.118000
75.121000 9.509000 454.924000
75.640000 9.509000 454.904000
76.137000 9.506000 454.755000
76.660000 9.506000 454.762000
77.175000 9.505000 454.718000
77.694000 9.505000 454.698000
78.228000 9.506000 454.768000
78.755000 9.507000 454.798000
79.296000 9.509000 454.902000
79.825000 9.510000 454.939000
80.374000 9.513000 455.092000
80.916000 9.515000 455.200000
81.466000 9.518000 455.352000
82.020000 9.522000 455.526000
82.570000 9.525000 455.675000
83.134000 9.530000 455.901000
83.695000 9.534000 456.101000
84.257000 9.538000 456.310000
84.835000 9.544000 456.601000
85.428000 9.552000 456.967000
86.011000 9.559000 457.278000
86.602000 9.566000 457.626000
87.185000 9.572000 457.931000
87.762000 9.578000 458.199000
88.394000 9.589000 458.745000
88.976000 9.595000 459.034000
89.612000 9.607000 459.592000
90.232000 9.617000 460.059000
90.865000 9.628000 460.592000
91.445000 9.633000 460.850000
92.143000 9.651000 461.696000
92.772000 9.661000 462.187000
46.939000 10.756000 487.774000
47.429000 10.740000 487.056000
47.978000 10.738000 486.942000
48.470000 10.723000 486.272000
49.028000 10.723000 486.269000
49.519000 10.708000 485.608000
50.098000 10.713000 485.814000
50.618000 10.705000 485.458000
51.279000 10.727000 486.438000
51.801000 10.719000 486.092000
52.496000 10.747000 487.359000
52.976000 10.731000 486.636000
53.698000 10.764000 488.113000
54.271000 10.766000 488.228000
54.965000 10.792000 489.420000
55.483000 10.784000 489.027000
56.150000 10.804000 489.947000
56.688000 10.799000 489.740000
57.382000 10.824000 490.861000
57.925000 10.820000 490.691000
58.565000 10.835000 491.331000
71.756000 10.073000 456.786000
72.223000 10.065000 456.420000
72.701000 10.058000 456.128000
73.178000 10.052000 455.841000
73.683000 10.049000 455.727000
74.162000 10.043000 455.453000
74.680000 10.043000 455.421000
75.169000 10.038000 455.220000
75.690000 10.038000 455.207000
76.187000 10.035000 455.054000
76.709000 10.034000 455.049000
77.220000 10.033000 454.986000
77.741000 10.033000 454.976000
78.265000 10.033000 454.984000
78.797000 10.034000 455.041000
79.335000 10.036000 455.125000
79.872000 10.038000 455.209000
80.405000 10.039000 455.271000
80.948000 10.042000 455.381000
81.494000 10.045000 455.511000
82.049000 10.049000 455.689000
82.600000 10.052000 455.843000
83.165000 10.057000 456.068000
83.719000 10.061000 456.232000
84.279000 10.065000 456.432000
84.854000 10.071000 456.704000
85.432000 10.077000 456.991000
86.014000 10.084000 457.295000
86.598000 10.091000 457.608000
87.189000 10.099000 457.952000
87.767000 10.105000 458.225000
88.391000 10.116000 458.733000
88.979000 10.123000 459.044000
89.599000 10.133000 459.521000
90.206000 10.142000 459.929000
90.840000 10.154000 460.462000
91.439000 10.162000 460.819000
92.120000 10.178000 461.577000
92.739000 10.188000 462.022000
93.417000 10.204000 462.755000
48.399000 11.265000 485.560000
48.975000 11.269000 485.741000
49.472000 11.255000 485.153000
50.069000 11.264000 485.535000
50.630000 11.265000 485.570000
51.325000 11.295000 486.875000
51.813000 11.280000 486.201000
52.509000 11.309000 487.479000
53.022000 11.299000 487.051000
53.751000 11.335000 488.600000
54.302000 11.333000 488.505000
55.002000 11.362000 489.748000
55.496000 11.348000 489.142000
56.159000 11.368000 490.026000
56.740000 11.372000 490.185000
57.417000 11.395000 491.162000
57.922000 11.383000 490.662000
58.518000 11.390000 490.933000
58.978000 11.370000 490.077000
71.813000 10.606000 457.145000
72.273000 10.596000 456.736000
72.755000 10.590000 456.467000
73.229000 10.583000 456.159000
73.735000 10.580000 456.048000
74.215000 10.574000 455.779000
74.735000 10.573000 455.756000
75.212000 10.567000 455.476000
75.732000 10.567000 455.462000
76.235000 10.564000 455.338000
76.758000 10.564000 455.344000
77.263000 10.561000 455.238000
77.786000 10.561000 455.240000
78.302000 10.560000 455.198000
78.833000 10.562000 455.245000
79.363000 10.563000 455.288000
79.914000 10.566000 455.447000
80.437000 10.566000 455.449000
80.982000 10.569000 455.573000
81.523000 10.571000 455.671000
82.082000 10.576000 455.872000
