83.925000 8.575000 491.166000
84.523000 8.578000 491.362000
85.067000 8.576000 491.246000
85.629000 8.576000 491.236000
86.185000 8.575000 491.187000
86.784000 8.579000 491.389000
87.364000 8.580000 491.474000
87.929000 8.580000 491.478000
88.503000 8.581000 491.533000
89.071000 8.582000 491.554000
89.642000 8.582000 491.587000
90.226000 8.584000 491.695000
90.810000 8.586000 491.800000
91.406000 8.589000 491.967000
91.975000 8.589000 491.989000
92.530000 8.588000 491.935000
93.091000 8.588000 491.918000
93.696000 8.592000 492.127000
94.246000 8.590000 492.049000
94.835000 8.593000 492.173000
95.386000 8.591000 492.101000
96.045000 8.600000 492.585000
96.565000 8.596000 492.348000
97.138000 8.596000 492.386000
97.656000 8.592000 492.149000
98.278000 8.597000 492.437000
98.794000 8.593000 492.186000
99.448000 8.601000 492.629000
99.959000 8.596000 492.358000
100.611000 8.603000 492.785000
101.118000 8.598000 492.499000
101.712000 8.601000 492.633000
102.245000 8.598000 492.476000
102.894000 8.605000 492.877000
103.455000 8.604000 492.854000
104.119000 8.613000 493.319000
104.639000 8.609000 493.101000
105.190000 8.607000 493.029000
105.755000 8.607000 493.023000
106.375000 8.612000 493.271000
106.903000 8.609000 493.097000
107.434000 8.606000 492.935000
108.052000 8.610000 493.172000
108.648000 8.612000 493.305000
109.223000 8.613000 493.345000
109.814000 8.615000 493.454000
110.433000 8.619000 493.690000
111.016000 8.620000 493.760000
111.599000 8.622000 493.833000
112.139000 8.619000 493.712000
112.694000 8.618000 493.660000
113.272000 8.619000 493.710000
114.016000 8.633000 494.476000
114.463000 8.624000 493.957000
114.997000 8.621000 493.814000
115.556000 8.621000 493.777000
116.208000 8.627000 494.141000
116.786000 8.628000 494.184000
117.382000 8.630000 494.307000
117.930000 8.628000 494.222000
118.498000 8.628000 494.224000
119.093000 8.630000 494.338000
119.699000 8.633000 494.498000
120.306000 8.636000 494.660000
120.896000 8.638000 494.749000
121.442000 8.636000 494.658000
122.032000 8.638000 494.750000
122.653000 8.641000 494.960000
123.242000 8.643000 495.046000
123.831000 8.644000 495.128000
124.390000 8.643000 495.089000
124.975000 8.645000 495.155000
125.548000 8.645000 495.173000
126.141000 8.647000 495.267000
126.757000 8.650000 495.454000
127.349000 8.651000 495.542000
127.913000 8.651000 495.522000
128.497000 8.652000 495.583000
129.076000 8.653000 495.619000
129.744000 8.659000 495.998000
130.323000 8.660000 496.034000
130.884000 8.659000 496.002000
131.500000 8.662000 496.176000
132.117000 8.666000 496.355000
132.624000 8.661000 496.117000
133.209000 8.662000 496.175000
133.864000 8.668000 496.493000
134.375000 8.664000 496.274000
134.933000 8.663000 496.228000
135.627000 8.671000 496.685000
136.279000 8.676000 496.981000
136.793000 8.673000 496.777000
137.343000 8.672000 496.702000
137.938000 8.673000 496.790000
138.629000 8.681000 497.225000
139.187000 8.680000 497.176000
139.821000 8.684000 497.401000
140.406000 8.685000 497.451000
141.127000 8.694000 497.980000
141.961000 8.710000 498.903000
142.337000 8.698000 498.213000
142.676000 8.684000 497.398000
143.345000 8.690000 497.740000
144.034000 8.697000 498.145000
144.579000 8.695000 498.054000
145.105000 8.692000 497.897000
145.749000 8.697000 498.144000
146.470000 8.706000 498.649000
147.149000 8.712000 499.011000
147.819000 8.718000 499.338000
148.483000 8.723000 499.644000
149.163000 8.729000 500.000000
149.819000 8.734000 500.271000
150.495000 8.740000 500.609000
151.172000 8.746000 500.948000
151.917000 8.756000 501.509000
152.532000 8.758000 501.637000
153.265000 8.767000 502.154000
153.906000 8.770000 502.363000
154.602000 8.777000 502.749000
155.295000 8.784000 503.125000
156.025000 8.792000 503.617000
163.398000 8.847000 506.755000
163.818000 8.838000 506.254000
164.199000 8.828000 505.636000
164.584000 8.817000 505.036000
165.076000 8.812000 504.768000
165.463000 8.802000 504.182000
165.958000 8.798000 503.928000
166.379000 8.789000 503.450000
166.817000 8.782000 503.026000
167.283000 8.776000 502.691000
167.764000 8.771000 502.403000
168.222000 8.765000 502.049000
168.706000 8.760000 501.773000
169.175000 8.755000 501.455000
169.656000 8.750000 501.176000
170.155000 8.746000 500.951000
170.633000 8.741000 500.665000
171.170000 8.739000 500.554000
171.630000 8.733000 500.221000
172.182000 8.732000 500.155000
172.691000 8.729000 499.965000
173.248000 8.728000 499.916000
173.743000 8.724000 499.688000
174.307000 8.723000 499.662000
174.821000 8.720000 499.490000
175.376000 8.719000 499.438000
175.908000 8.717000 499.320000
176.465000 8.717000 499.274000
177.015000 8.715000 499.209000
177.586000 8.715000 499.202000
178.166000 8.716000 499.220000
178.747000 8.716000 499.243000
179.378000 8.719000 499.402000
179.940000 8.718000 499.372000
180.574000 8.721000 499.539000
181.125000 8.720000 499.476000
181.816000 8.726000 499.799000
182.427000 8.727000 499.901000
183.103000 8.732000 500.180000
183.718000 8.734000 500.289000
184.422000 8.740000 500.642000
185.058000 8.743000 500.808000
185.833000 8.753000 501.348000
186.483000 8.756000 501.547000
187.269000 8.766000 502.110000
188.030000 8.775000 502.604000
22.237000 9.052000 486.505000
22.774000 9.044000 486.041000
23.326000 9.041000 485.920000
23.870000 9.036000 485.630000
24.416000 9.032000 485.408000
24.964000 9.028000 485.218000
25.510000 9.024000 485.008000
26.053000 9.020000 484.749000
26.607000 9.019000 484.699000
27.151000 9.014000 484.474000
27.714000 9.017000 484.595000
28.255000 9.012000 484.331000
28.819000 9.014000 484.455000
29.362000 9.010000 484.247000
29.928000 9.013000 484.395000
30.479000 9.011000 484.313000
31.043000 9.014000 484.438000
31.597000 9.013000 484.398000
32.165000 9.016000 484.581000
32.719000 9.016000 484.552000
33.290000 9.020000 484.761000
33.850000 9.021000 484.803000
34.432000 9.027000 485.164000
34.993000 9.028000 485.224000
35.571000 9.034000 485.504000
36.140000 9.036000 485.656000
36.739000 9.047000 486.208000
37.300000 9.047000 486.239000
37.909000 9.059000 486.890000
38.482000 9.063000 487.063000
39.085000 9.073000 487.618000
39.669000 9.078000 487.912000
40.299000 9.094000 488.757000
54.924000 9.194000 494.100000
55.464000 9.189000 493.856000
55.985000 9.181000 493.451000
63.562000 9.130000 490.711000
64.114000 9.129000 490.618000
64.659000 9.126000 490.484000
65.276000 9.134000 490.885000
65.901000 9.142000 491.345000
66.403000 9.134000 490.886000
66.904000 9.125000 490.427000
67.422000 9.119000 490.092000
67.932000 9.112000 489.715000
68.452000 9.106000 489.409000
68.992000 9.103000 489.255000
69.669000 9.118000 490.067000
70.327000 9.131000 490.729000
70.890000 9.131000 490.731000
71.460000 9.132000 490.775000
72.006000 9.129000 490.653000
72.588000 9.132000 490.781000
73.143000 9.131000 490.721000
73.709000 9.131000 490.739000
74.260000 9.129000 490.653000
74.821000 9.129000 490.640000
75.419000 9.133000 490.866000
75.998000 9.135000 490.963000
76.534000 9.132000 490.786000
77.118000 9.134000 490.916000
77.731000 9.140000 491.230000
78.295000 9.140000 491.228000
78.831000 9.137000 491.050000
79.375000 9.135000 490.929000
79.965000 9.138000 491.090000
80.536000 9.138000 491.137000
81.122000 9.141000 491.266000
81.698000 9.142000 491.338000
82.258000 9.142000 491.314000
82.815000 9.141000 491.271000
83.402000 9.143000 491.406000
83.972000 9.144000 491.438000
84.547000 9.145000 491.503000
85.098000 9.144000 491.424000
85.659000 9.143000 491.410000
86.193000 9.140000 491.232000
86.772000 9.142000 491.322000
87.382000 9.147000 491.574000
87.966000 9.149000 491.687000
88.542000 9.150000 491.750000
89.100000 9.149000 491.713000
89.673000 9.150000 491.761000
90.261000 9.152000 491.883000
90.848000 9.155000 492.008000
91.437000 9.157000 492.136000
91.986000 9.155000 492.049000
92.538000 9.154000 491.981000
93.107000 9.154000 492.001000
93.718000 9.159000 492.243000
94.274000 9.158000 492.194000
94.875000 9.162000 492.382000
95.422000 9.160000 492.289000
96.078000 9.168000 492.751000
96.613000 9.166000 492.597000
97.157000 9.163000 492.483000
97.673000 9.159000 492.234000
98.316000 9.166000 492.624000
98.821000 9.160000 492.321000
99.479000 9.169000 492.783000
99.991000 9.164000 492.515000
100.641000 9.172000 492.930000
101.152000 9.167000 492.661000
101.760000 9.171000 492.866000
102.240000 9.163000 492.452000
102.906000 9.172000 492.935000
103.493000 9.174000 493.033000
104.110000 9.178000 493.275000
104.614000 9.173000 492.981000
105.185000 9.173000 493.003000
105.803000 9.178000 493.248000
106.392000 9.180000 493.350000
106.893000 9.174000 493.051000
107.443000 9.173000 492.977000
108.067000 9.178000 493.239000
108.667000 9.180000 493.395000
109.266000 9.183000 493.538000
109.836000 9.183000 493.555000
110.433000 9.186000 493.691000
111.019000 9.187000 493.775000
111.617000 9.190000 493.911000
112.181000 9.190000 493.897000
112.730000 9.188000 493.818000
113.322000 9.190000 493.928000
113.929000 9.194000 494.099000
114.550000 9.198000 494.331000
115.122000 9.198000 494.352000
115.640000 9.194000 494.138000
116.264000 9.199000 494.379000
116.786000 9.195000 494.188000
117.352000 9.195000 494.178000
117.934000 9.196000 494.238000
118.518000 9.197000 494.307000
119.115000 9.200000 494.433000
119.730000 9.203000 494.628000
120.309000 9.204000 494.672000
120.868000 9.203000 494.633000
121.417000 9.202000 494.557000
122.016000 9.204000 494.684000
122.625000 9.207000 494.847000
123.220000 9.210000 494.958000
123.828000 9.212000 495.116000
124.387000 9.212000 495.079000
124.989000 9.214000 495.210000
125.534000 9.212000 495.118000
126.159000 9.217000 495.338000
126.761000 9.219000 495.467000
127.355000 9.221000 495.568000
127.855000 9.216000 495.300000
128.500000 9.221000 495.592000
129.069000 9.221000 495.592000
129.714000 9.227000 495.883000
130.294000 9.227000 495.922000
130.876000 9.228000 495.971000
131.481000 9.231000 496.104000
132.105000 9.235000 496.310000
132.624000 9.231000 496.119000
133.206000 9.232000 496.164000
133.837000 9.236000 496.392000
134.377000 9.234000 496.280000
134.899000 9.231000 496.105000
135.557000 9.237000 496.429000
136.253000 9.245000 496.886000
136.801000 9.244000 496.805000
137.326000 9.241000 496.640000
137.913000 9.242000 496.703000
138.595000 9.249000 497.101000
139.147000 9.248000 497.035000
139.800000 9.254000 497.326000
140.347000 9.252000 497.242000
141.121000 9.265000 497.959000
141.941000 9.282000 498.832000
142.300000 9.268000 498.084000
142.662000 9.254000 497.351000
143.349000 9.262000 497.753000
144.020000 9.268000 498.098000
144.538000 9.264000 497.912000
145.036000 9.260000 497.657000
145.699000 9.266000 497.971000
146.437000 9.276000 498.537000
147.089000 9.281000 498.807000
147.788000 9.289000 499.234000
148.443000 9.294000 499.508000
149.101000 9.299000 499.791000
149.784000 9.306000 500.156000
150.452000 9.312000 500.467000
151.105000 9.317000 500.728000
151.870000 9.329000 501.355000
152.438000 9.328000 501.330000
153.212000 9.340000 501.979000
153.803000 9.341000 502.028000
154.559000 9.352000 502.609000
155.243000 9.358000 502.956000
163.284000 9.422000 506.400000
163.704000 9.413000 505.902000
164.129000 9.404000 505.420000
164.486000 9.391000 504.737000
164.990000 9.387000 504.505000
165.376000 9.376000 503.918000
165.849000 9.370000 503.595000
166.287000 9.362000 503.170000
166.733000 9.355000 502.773000
167.190000 9.348000 502.414000
167.666000 9.343000 502.109000
168.123000 9.336000 501.753000
168.624000 9.332000 501.529000
169.101000 9.326000 501.237000
169.592000 9.322000 500.988000
170.091000 9.317000 500.762000
170.560000 9.312000 500.451000
171.114000 9.311000 500.392000
171.564000 9.304000 500.028000
172.109000 9.302000 499.944000
172.579000 9.297000 499.640000
173.137000 9.296000 499.597000
173.655000 9.293000 499.436000
174.221000 9.292000 499.416000
174.719000 9.288000 499.200000
175.294000 9.289000 499.204000
175.814000 9.286000 499.053000
176.390000 9.286000 499.061000
176.926000 9.284000 498.957000
177.511000 9.285000 498.991000
178.081000 9.284000 498.983000
178.649000 9.284000 498.970000
179.267000 9.286000 499.093000
179.828000 9.286000 499.060000
180.466000 9.289000 499.240000
181.029000 9.289000 499.213000
181.703000 9.294000 499.489000
182.278000 9.294000 499.493000
182.989000 9.301000 499.867000
183.613000 9.303000 500.005000
184.291000 9.309000 500.286000
184.955000 9.313000 500.529000
185.694000 9.321000 500.972000
186.345000 9.325000 501.175000
187.133000 9.336000 501.746000
187.884000 9.344000 502.212000
188.652000 9.354000 502.722000
22.798000 9.612000 486.551000
23.352000 9.610000 486.448000
23.893000 9.603000 486.103000
24.443000 9.599000 485.927000
24.987000 9.594000 485.673000
25.532000 9.590000 485.431000
26.083000 9.587000 485.310000
26.630000 9.583000 485.117000
27.177000 9.580000 484.933000
27.735000 9.580000 484.960000
28.280000 9.576000 484.756000
28.843000 9.579000 484.870000
29.389000 9.575000 484.682000
29.959000 9.579000 484.900000
30.504000 9.576000 484.716000
31.076000 9.580000 484.957000
31.622000 9.577000 484.795000
32.198000 9.583000 485.078000
32.755000 9.583000 485.076000
33.330000 9.588000 485.345000
33.884000 9.587000 485.301000
34.468000 9.594000 485.671000
35.030000 9.595000 485.726000
35.614000 9.603000 486.088000
36.184000 9.606000 486.252000
36.787000 9.617000 486.835000
37.348000 9.618000 486.871000
37.955000 9.630000 487.476000
38.540000 9.637000 487.805000
39.140000 9.646000 488.303000
39.736000 9.655000 488.738000
40.362000 9.670000 489.519000
54.995000 9.774000 494.745000
55.531000 9.768000 494.457000
56.050000 9.759000 494.023000
63.600000 9.700000 490.997000
64.150000 9.698000 490.896000
64.720000 9.699000 490.946000
65.352000 9.709000 491.458000
65.933000 9.711000 491.580000
66.425000 9.701000 491.048000
66.926000 9.691000 490.582000
67.430000 9.683000 490.150000
67.922000 9.673000 489.645000
68.499000 9.675000 489.746000
69.103000 9.681000 490.043000
69.733000 9.690000 490.515000
70.368000 9.700000 491.018000
70.932000 9.700000 491.019000
71.533000 9.705000 491.274000
72.066000 9.701000 491.059000
72.640000 9.702000 491.128000
73.177000 9.699000 490.949000
73.759000 9.701000 491.074000
74.303000 9.698000 490.938000
74.862000 9.698000 490.908000
75.463000 9.703000 491.155000
76.047000 9.705000 491.281000
76.580000 9.701000 491.082000
77.135000 9.700000 491.023000
77.749000 9.706000 491.343000
78.348000 9.711000 491.560000
78.876000 9.706000 491.330000
79.402000 9.702000 491.096000
79.975000 9.703000 491.154000
80.598000 9.710000 491.515000
81.183000 9.712000 491.635000
81.727000 9.710000 491.516000
82.270000 9.707000 491.385000
82.862000 9.711000 491.549000
83.454000 9.714000 491.711000
84.040000 9.716000 491.837000
84.591000 9.715000 491.760000
85.138000 9.713000 491.658000
85.693000 9.712000 491.600000
86.258000 9.712000 491.608000
86.826000 9.712000 491.625000
87.418000 9.715000 491.779000
88.000000 9.717000 491.876000
88.584000 9.719000 491.984000
89.150000 9.719000 491.990000
89.735000 9.721000 492.099000
90.308000 9.722000 492.143000
90.863000 9.721000 492.086000
91.447000 9.723000 492.188000
92.011000 9.723000 492.182000
92.581000 9.724000 492.211000
93.126000 9.721000 492.102000
93.708000 9.723000 492.193000
94.292000 9.725000 492.287000
94.916000 9.731000 492.593000
95.478000 9.731000 492.578000
96.117000 9.738000 492.952000
96.627000 9.733000 492.665000
97.189000 9.732000 492.645000
97.725000 9.729000 492.499000
98.365000 9.737000 492.871000
98.849000 9.729000 492.463000
99.488000 9.736000 492.826000
100.008000 9.731000 492.599000
100.676000 9.741000 493.102000
101.230000 9.740000 493.042000
101.816000 9.742000 493.139000
102.329000 9.737000 492.885000
102.937000 9.741000 493.085000
103.502000 9.741000 493.077000
104.111000 9.745000 493.282000
104.630000 9.740000 493.056000
105.193000 9.740000 493.042000
105.845000 9.748000 493.444000
106.430000 9.750000 493.528000
106.963000 9.747000 493.375000
107.519000 9.746000 493.324000
108.087000 9.746000 493.332000
108.688000 9.749000 493.487000
109.301000 9.753000 493.698000
109.854000 9.752000 493.637000
110.469000 9.756000 493.849000
111.028000 9.755000 493.813000
111.618000 9.757000 493.914000
112.188000 9.757000 493.927000
112.756000 9.758000 493.933000
113.334000 9.758000 493.979000
113.949000 9.763000 494.187000
114.583000 9.768000 494.473000
115.176000 9.770000 494.584000
115.627000 9.761000 494.084000
116.331000 9.772000 494.663000
116.774000 9.762000 494.134000
117.367000 9.764000 494.241000
117.943000 9.764000 494.279000
118.588000 9.771000 494.601000
119.138000 9.769000 494.528000
119.761000 9.774000 494.755000
120.334000 9.774000 494.776000
120.870000 9.772000 494.645000
121.429000 9.771000 494.607000
122.054000 9.775000 494.838000
122.640000 9.777000 494.908000
123.194000 9.776000 494.851000
123.788000 9.778000 494.955000
124.382000 9.780000 495.059000
124.957000 9.780000 495.085000
125.533000 9.781000 495.112000
126.181000 9.787000 495.424000
126.726000 9.785000 495.333000
127.293000 9.785000 495.326000
127.834000 9.783000 495.218000
128.497000 9.790000 495.581000
129.091000 9.792000 495.677000
129.684000 9.794000 495.768000
130.275000 9.796000 495.852000
130.894000 9.799000 496.038000
131.457000 9.799000 496.013000
132.056000 9.801000 496.126000
132.627000 9.801000 496.128000
133.210000 9.802000 496.179000
133.771000 9.801000 496.148000
134.355000 9.802000 496.200000
134.923000 9.802000 496.192000
135.541000 9.806000 496.368000
136.190000 9.811000 496.659000
136.802000 9.814000 496.810000
137.388000 9.815000 496.864000
137.932000 9.814000 496.769000
138.512000 9.814000 496.805000
139.108000 9.816000 496.896000
139.736000 9.820000 497.099000
140.308000 9.820000 497.105000
141.102000 9.836000 497.890000
141.914000 9.852000 498.735000
142.274000 9.838000 497.992000
142.654000 9.825000 497.322000
143.344000 9.833000 497.735000
143.981000 9.837000 497.962000
144.494000 9.833000 497.759000
144.986000 9.828000 497.488000
145.659000 9.835000 497.834000
146.402000 9.846000 498.419000
147.055000 9.852000 498.690000
147.748000 9.860000 499.098000
148.396000 9.865000 499.350000
149.055000 9.870000 499.638000
149.756000 9.879000 500.061000
150.424000 9.885000 500.374000
151.072000 9.890000 500.616000
151.785000 9.899000 501.075000
152.408000 9.902000 501.229000
153.133000 9.911000 501.721000
153.722000 9.912000 501.761000
154.494000 9.925000 502.400000
155.190000 9.932000 502.783000
163.205000 9.999000 506.157000
163.597000 9.987000 505.571000
164.030000 9.979000 505.118000
164.403000 9.966000 504.481000
164.902000 9.961000 504.235000
165.291000 9.950000 503.658000
165.762000 9.943000 503.330000
166.195000 9.935000 502.894000
166.667000 9.928000 502.574000
167.107000 9.920000 502.162000
167.579000 9.914000 501.848000
168.040000 9.907000 501.506000
168.536000 9.902000 501.268000
169.027000 9.898000 501.017000
169.510000 9.892000 500.745000
170.017000 9.888000 500.543000
170.482000 9.882000 500.224000
171.039000 9.881000 500.171000
171.497000 9.874000 499.833000
172.031000 9.872000 499.716000
172.487000 9.865000 499.375000
173.037000 9.864000 499.308000
173.534000 9.859000 499.089000
174.110000 9.860000 499.096000
174.625000 9.856000 498.931000
175.209000 9.857000 498.961000
175.724000 9.854000 498.798000
176.320000 9.855000 498.865000
176.847000 9.852000 498.735000
177.438000 9.853000 498.786000
177.995000 9.853000 498.742000
178.576000 9.853000 498.766000
179.178000 9.855000 498.846000
179.737000 9.854000 498.807000
180.365000 9.857000 498.960000
180.963000 9.858000 499.029000
181.632000 9.864000 499.295000
182.194000 9.863000 499.264000
182.877000 9.869000 499.561000
183.502000 9.872000 499.702000
184.165000 9.876000 499.945000
184.850000 9.882000 500.244000
185.558000 9.889000 500.605000
186.243000 9.895000 500.903000
187.026000 9.906000 501.459000
187.751000 9.914000 501.858000
188.471000 9.922000 502.241000
189.296000 9.935000 502.900000
22.829000 10.184000 487.218000
23.379000 10.180000 487.019000
23.917000 10.171000 486.584000
24.475000 10.171000 486.581000
25.013000 10.162000 486.166000
25.565000 10.160000 486.055000
26.111000 10.155000 485.833000
26.663000 10.153000 485.713000
27.209000 10.149000 485.509000
27.770000 10.150000 485.575000
28.312000 10.144000 485.300000
28.874000 10.146000 485.385000
29.423000 10.143000 485.244000
29.994000 10.148000 485.468000
30.532000 10.142000 485.166000
31.109000 10.148000 485.471000
31.652000 10.143000 485.254000
32.238000 10.152000 485.686000
32.788000 10.150000 485.571000
33.367000 10.157000 485.885000
33.920000 10.155000 485.806000
34.508000 10.164000 486.241000
35.067000 10.164000 486.242000
35.666000 10.176000 486.802000
36.223000 10.175000 486.771000
36.829000 10.188000 487.400000
37.401000 10.191000 487.557000
38.002000 10.202000 488.083000
38.593000 10.211000 488.477000
39.210000 10.225000 489.178000
63.644000 10.271000 491.338000
64.198000 10.269000 491.264000
64.794000 10.274000 491.507000
65.407000 10.282000 491.872000
65.933000 10.276000 491.584000
66.432000 10.265000 491.097000
66.939000 10.257000 490.680000
67.429000 10.246000 490.142000
67.928000 10.236000 489.687000
68.566000 10.247000 490.229000
69.238000 10.264000 491.004000
69.821000 10.266000 491.138000
70.416000 10.271000 491.350000
70.970000 10.269000 491.283000
71.564000 10.274000 491.489000
72.106000 10.270000 491.332000
72.681000 10.272000 491.409000
73.220000 10.268000 491.238000
73.834000 10.275000 491.573000
74.371000 10.272000 491.392000
74.938000 10.272000 491.406000
75.495000 10.271000 491.361000
76.081000 10.274000 491.501000
76.637000 10.273000 491.447000
77.197000 10.272000 491.421000
77.774000 10.274000 491.502000
78.401000 10.282000 491.890000
78.925000 10.277000 491.637000
79.459000 10.273000 491.450000
80.008000 10.271000 491.353000
80.623000 10.277000 491.665000
81.236000 10.284000 491.960000
81.785000 10.281000 491.861000
82.301000 10.275000 491.575000
82.893000 10.279000 491.737000
83.480000 10.282000 491.865000
84.093000 10.287000 492.147000
84.640000 10.285000 492.045000
85.160000 10.280000 491.785000
85.722000 10.280000 491.771000
86.321000 10.284000 491.962000
86.886000 10.284000 491.963000
87.476000 10.287000 492.108000
88.036000 10.286000 492.080000
88.620000 10.288000 492.180000
89.185000 10.288000 492.184000
89.769000 10.290000 492.284000
90.343000 10.291000 492.335000
90.875000 10.288000 492.154000
91.443000 10.288000 492.165000
92.043000 10.292000 492.353000
92.636000 10.295000 492.501000
93.171000 10.291000 492.337000
93.745000 10.292000 492.385000
94.315000 10.293000 492.410000
94.936000 10.299000 492.697000
95.508000 10.300000 492.728000
96.117000 10.304000 492.953000
96.617000 10.297000 492.613000
97.243000 10.304000 492.919000
97.802000 10.303000 492.885000
98.403000 10.307000 493.059000
98.897000 10.299000 492.702000
99.495000 10.302000 492.859000
100.036000 10.300000 492.740000
100.688000 10.309000 493.163000
101.245000 10.308000 493.114000
101.831000 10.310000 493.214000
102.385000 10.308000 493.153000
102.976000 10.311000 493.271000
103.545000 10.311000 493.283000
104.120000 10.312000 493.322000
104.647000 10.308000 493.137000
105.220000 10.309000 493.169000
105.828000 10.313000 493.364000
106.455000 10.319000 493.645000
107.019000 10.318000 493.630000
107.560000 10.316000 493.514000
108.125000 10.316000 493.507000
108.698000 10.316000 493.535000
109.305000 10.320000 493.716000
109.874000 10.320000 493.724000
110.481000 10.324000 493.905000
111.030000 10.322000 493.822000
111.642000 10.327000 494.020000
112.182000 10.324000 493.901000
112.766000 10.326000 493.978000
113.362000 10.328000 494.101000
113.978000 10.333000 494.311000
114.613000 10.339000 494.602000
115.170000 10.338000 494.557000
115.703000 10.335000 494.407000
116.306000 10.338000 494.557000
116.812000 10.332000 494.295000
117.366000 10.331000 494.239000
117.984000 10.336000 494.449000
118.579000 10.338000 494.564000
119.147000 10.338000 494.563000
119.766000 10.342000 494.777000
120.359000 10.344000 494.876000
120.904000 10.342000 494.781000
121.464000 10.342000 494.748000
122.073000 10.345000 494.916000
122.647000 10.346000 494.940000
123.187000 10.343000 494.823000
123.783000 10.346000 494.936000
124.407000 10.350000 495.156000
124.971000 10.350000 495.138000
125.576000 10.353000 495.281000
126.154000 10.354000 495.317000
126.735000 10.355000 495.369000
127.306000 10.355000 495.375000
127.867000 10.354000 495.344000
128.534000 10.362000 495.723000
129.073000 10.360000 495.608000
129.634000 10.359000 495.576000
130.208000 10.360000 495.597000
131.036000 10.380000 496.575000
131.523000 10.373000 496.262000
132.021000 10.368000 495.993000
132.549000 10.365000 495.839000
133.166000 10.368000 496.015000
133.766000 10.371000 496.129000
134.391000 10.375000 496.334000
134.972000 10.376000 496.374000
135.538000 10.375000 496.360000
136.130000 10.377000 496.440000
136.765000 10.382000 496.674000
137.437000 10.390000 497.042000
137.896000 10.381000 496.638000
138.481000 10.382000 496.693000
139.077000 10.384000 496.785000
139.733000 10.391000 497.087000
140.279000 10.389000 497.002000
141.223000 10.416000 498.317000
141.935000 10.427000 498.811000
142.302000 10.412000 498.088000
142.687000 10.398000 497.439000
143.333000 10.403000 497.699000
143.936000 10.406000 497.807000
144.467000 10.403000 497.667000
144.974000 10.398000 497.446000
145.636000 10.405000 497.755000
146.393000 10.418000 498.386000
147.035000 10.423000 498.623000
147.724000 10.431000 499.018000
148.380000 10.437000 499.297000
149.029000 10.442000 499.551000
149.709000 10.450000 499.906000
150.400000 10.458000 500.294000
151.041000 10.462000 500.516000
151.769000 10.473000 501.019000
152.368000 10.475000 501.098000
153.104000 10.486000 501.626000
153.664000 10.484000 501.574000
154.443000 10.498000 502.234000
155.149000 10.507000 502.651000
163.114000 10.574000 505.873000
163.509000 10.562000 505.298000
163.973000 10.555000 504.940000
164.330000 10.541000 504.259000
164.827000 10.535000 504.008000
165.229000 10.524000 503.467000
165.671000 10.515000 503.056000
166.116000 10.507000 502.654000
166.593000 10.501000 502.351000
167.034000 10.492000 501.944000
167.521000 10.487000 501.677000
167.971000 10.479000 501.299000
168.459000 10.473000 501.038000
168.940000 10.467000 500.759000
169.420000 10.462000 500.479000
169.950000 10.459000 500.347000
170.410000 10.452000 500.010000
170.948000 10.450000 499.906000
171.414000 10.443000 499.590000
171.955000 10.441000 499.497000
172.430000 10.435000 499.210000
172.983000 10.434000 499.153000
173.475000 10.429000 498.918000
174.058000 10.430000 498.948000
174.536000 10.424000 498.676000
175.123000 10.425000 498.718000
175.617000 10.420000 498.495000
176.219000 10.422000 498.579000
176.765000 10.420000 498.503000
177.362000 10.422000 498.572000
177.920000 10.421000 498.531000
178.505000 10.422000 498.565000
179.098000 10.423000 498.625000
179.669000 10.423000 498.620000
180.293000 10.426000 498.762000
180.879000 10.426000 498.797000
181.550000 10.432000 499.069000
182.116000 10.432000 499.048000
182.781000 10.437000 499.299000
183.388000 10.439000 499.393000
184.094000 10.446000 499.752000
184.748000 10.451000 499.967000
185.432000 10.457000 500.266000
186.119000 10.463000 500.569000
186.863000 10.473000 501.022000
187.603000 10.482000 501.462000
188.337000 10.491000 501.882000
189.170000 10.505000 502.565000
24.501000 10.741000 487.078000
25.040000 10.732000 486.698000
25.599000 10.732000 486.692000
26.139000 10.725000 486.346000
26.697000 10.724000 486.331000
27.238000 10.718000 486.029000
27.799000 10.719000 486.083000
28.347000 10.715000 485.898000
28.904000 10.714000 485.885000
29.459000 10.713000 485.838000
30.028000 10.717000 486.021000
30.572000 10.712000 485.789000
31.142000 10.717000 485.993000
31.693000 10.714000 485.877000
32.272000 10.721000 486.191000
32.829000 10.721000 486.169000
33.404000 10.726000 486.418000
33.964000 10.727000 486.441000
34.553000 10.736000 486.873000
35.107000 10.735000 486.799000
35.709000 10.747000 487.380000
36.268000 10.747000 487.377000
36.874000 10.761000 487.994000
37.458000 10.768000 488.301000
38.060000 10.779000 488.833000
38.651000 10.788000 489.211000
39.275000 10.805000 489.983000
59.250000 10.961000 497.074000
59.780000 10.954000 496.741000
60.295000 10.944000 496.283000
60.774000 10.927000 495.540000
61.229000 10.907000 494.620000
61.680000 10.886000 493.683000
62.159000 10.871000 492.985000
62.652000 10.858000 492.411000
63.166000 10.850000 492.014000
63.686000 10.842000 491.665000
64.251000 10.842000 491.671000
64.873000 10.852000 492.105000
65.454000 10.854000 492.224000
65.941000 10.841000 491.641000
66.447000 10.832000 491.207000
66.964000 10.824000 490.861000
67.451000 10.812000 490.302000
68.005000 10.811000 490.242000
68.627000 10.820000 490.665000
69.291000 10.836000 491.379000
69.895000 10.842000 491.657000
70.472000 10.844000 491.740000
71.029000 10.843000 491.693000
71.600000 10.843000 491.736000
72.151000 10.841000 491.642000
72.742000 10.845000 491.821000
73.298000 10.844000 491.761000
73.883000 10.847000 491.894000
74.421000 10.843000 491.719000
74.999000 10.845000 491.807000
75.548000 10.843000 491.708000
76.120000 10.844000 491.755000
76.689000 10.844000 491.777000
77.293000 10.850000 492.032000
77.852000 10.849000 491.994000
78.432000 10.851000 492.088000
78.960000 10.846000 491.859000
79.521000 10.846000 491.835000
80.063000 10.843000 491.693000
80.678000 10.849000 492.002000
81.278000 10.854000 492.212000
81.862000 10.857000 492.327000
82.366000 10.848000 491.961000
82.953000 10.851000 492.093000
83.502000 10.849000 491.999000
84.139000 10.858000 492.415000
84.692000 10.857000 492.343000
85.228000 10.853000 492.177000
85.772000 10.851000 492.056000
86.375000 10.855000 492.273000
86.952000 10.857000 492.337000
87.542000 10.860000 492.477000
88.088000 10.857000 492.367000
88.680000 10.861000 492.514000
89.234000 10.859000 492.453000
89.807000 10.860000 492.496000
90.387000 10.862000 492.572000
90.931000 10.859000 492.457000
91.504000 10.860000 492.495000
92.087000 10.862000 492.589000
92.685000 10.866000 492.762000
93.231000 10.864000 492.657000
93.816000 10.866000 492.758000
94.374000 10.865000 492.719000
94.944000 10.866000 492.739000
95.516000 10.866000 492.769000
96.140000 10.873000 493.072000
96.677000 10.870000 492.923000
97.294000 10.875000 493.181000
97.825000 10.871000 493.002000
98.445000 10.877000 493.270000
98.956000 10.871000 492.997000
99.550000 10.874000 493.132000
100.084000 10.871000 492.976000
100.722000 10.879000 493.327000
101.254000 10.875000 493.158000
101.857000 10.879000 493.337000
102.438000 10.880000 493.408000
103.028000 10.883000 493.518000
103.576000 10.881000 493.433000
104.158000 10.882000 493.504000
104.717000 10.882000 493.469000
105.275000 10.881000 493.426000
105.853000 10.882000 493.482000
106.477000 10.888000 493.747000
107.038000 10.887000 493.721000
107.589000 10.886000 493.645000
108.174000 10.887000 493.727000
108.740000 10.887000 493.722000
109.357000 10.892000 493.950000
109.908000 10.891000 493.877000
110.511000 10.894000 494.040000
111.057000 10.892000 493.944000
111.671000 10.897000 494.149000
112.234000 10.896000 494.132000
112.809000 10.897000 494.162000
113.390000 10.898000 494.223000
114.027000 10.905000 494.523000
114.618000 10.907000 494.623000
115.158000 10.905000 494.504000
115.720000 10.904000 494.478000
116.305000 10.906000 494.553000
116.802000 10.899000 494.252000
117.428000 10.904000 494.499000
118.041000 10.909000 494.691000
118.615000 10.909000 494.714000
119.130000 10.904000 494.492000
119.785000 10.912000 494.853000
120.404000 10.917000 495.064000
120.958000 10.916000 495.003000
121.483000 10.912000 494.826000
122.071000 10.913000 494.908000
122.661000 10.915000 494.993000
123.205000 10.913000 494.898000
123.844000 10.919000 495.177000
124.408000 10.919000 495.161000
124.987000 10.920000 495.202000
125.563000 10.921000 495.233000
126.198000 10.926000 495.492000
126.790000 10.928000 495.581000
127.412000 10.933000 495.788000
127.890000 10.925000 495.434000
128.516000 10.930000 495.656000
129.065000 10.928000 495.576000
129.637000 10.928000 495.588000
130.186000 10.927000 495.511000
131.060000 10.952000 496.668000
131.602000 10.950000 496.562000
132.022000 10.937000 495.997000
132.426000 10.924000 495.376000
133.077000 10.931000 495.682000
133.746000 10.939000 496.054000
134.394000 10.945000 496.343000
135.006000 10.949000 496.499000
135.506000 10.943000 496.240000
136.101000 10.945000 496.334000
136.794000 10.955000 496.780000
137.418000 10.959000 496.975000
137.910000 10.953000 496.691000
138.508000 10.955000 496.789000
139.109000 10.957000 496.897000
139.682000 10.958000 496.909000
140.321000 10.963000 497.151000
141.248000 10.991000 498.406000
141.820000 10.991000 498.406000
142.337000 10.986000 498.213000
142.686000 10.969000 497.435000
143.344000 10.976000 497.735000
143.862000 10.972000 497.550000
144.412000 10.970000 497.476000
144.942000 10.967000 497.337000
145.639000 10.976000 497.766000
146.384000 10.989000 498.357000
147.018000 10.994000 498.565000
147.702000 11.002000 498.944000
148.358000 11.009000 499.223000
149.015000 11.015000 499.503000
149.671000 11.021000 499.778000
150.334000 11.027000 500.075000
151.019000 11.035000 500.442000
151.721000 11.045000 500.863000
152.322000 11.047000 500.948000
153.063000 11.059000 501.492000
153.646000 11.059000 501.512000
154.395000 11.072000 502.077000
155.063000 11.078000 502.374000
163.053000 11.151000 505.683000
163.409000 11.136000 504.991000
163.907000 11.130000 504.739000
164.255000 11.115000 504.029000
164.756000 11.109000 503.789000
165.172000 11.098000 503.296000
165.609000 11.089000 502.865000
166.031000 11.079000 502.396000
166.515000 11.072000 502.115000
166.967000 11.064000 501.742000
167.469000 11.059000 501.520000
167.915000 11.051000 501.133000
168.400000 11.045000 500.864000
168.881000 11.039000 500.583000
169.340000 11.031000 500.244000
169.865000 11.028000 500.098000
170.345000 11.022000 499.820000
170.871000 11.019000 499.679000
171.331000 11.011000 499.348000
171.880000 11.010000 499.279000
172.359000 11.004000 499.006000
172.937000 11.004000 499.019000
173.420000 10.998000 498.759000
174.004000 10.999000 498.794000
174.474000 10.993000 498.500000
175.069000 10.994000 498.564000
175.549000 10.988000 498.301000
176.146000 10.990000 498.371000
176.673000 10.987000 498.244000
177.271000 10.989000 498.316000
177.847000 10.989000 498.328000
178.416000 10.989000 498.319000
179.005000 10.990000 498.365000
179.578000 10.990000 498.366000
180.192000 10.992000 498.483000
180.745000 10.991000 498.428000
181.431000 10.998000 498.742000
181.991000 10.997000 498.707000
182.696000 11.005000 499.069000
183.288000 11.006000 499.120000
183.982000 11.014000 499.449000
184.636000 11.018000 499.666000
185.289000 11.023000 499.880000
186.020000 11.032000 500.301000
186.729000 11.040000 500.663000
187.475000 11.050000 501.119000
188.236000 11.061000 501.615000
189.071000 11.076000 502.301000
24.533000 11.315000 487.731000
25.081000 11.310000 487.485000
25.633000 11.306000 487.338000
26.169000 11.296000 486.905000
26.731000 11.297000 486.957000
27.270000 11.289000 486.601000
27.835000 11.291000 486.705000
28.384000 11.288000 486.539000
28.944000 11.288000 486.559000
29.501000 11.287000 486.533000
30.062000 11.288000 486.576000
30.614000 11.286000 486.461000
31.182000 11.289000 486.617000
31.747000 11.291000 486.700000
32.314000 11.294000 486.835000
32.881000 11.297000 486.941000
33.456000 11.302000 487.174000
34.014000 11.302000 487.154000
34.598000 11.310000 487.505000
35.162000 11.311000 487.568000
35.755000 11.322000 488.018000
36.330000 11.326000 488.207000
36.944000 11.343000 488.921000
60.315000 11.517000 496.444000
60.792000 11.500000 495.687000
61.258000 11.480000 494.853000
61.721000 11.461000 494.016000
62.221000 11.449000 493.482000
62.711000 11.435000 492.878000
63.210000 11.423000 492.357000
63.733000 11.415000 492.031000
64.328000 11.420000 492.261000
64.967000 11.433000 492.816000
65.506000 11.428000 492.613000
65.977000 11.412000 491.907000
66.484000 11.402000 491.478000
66.994000 11.393000 491.082000
67.510000 11.385000 490.735000
68.136000 11.395000 491.187000
68.737000 11.402000 491.453000
69.333000 11.407000 491.677000
69.969000 11.418000 492.175000
70.523000 11.417000 492.100000
71.084000 11.416000 492.069000
71.646000 11.415000 492.053000
72.208000 11.415000 492.028000
72.807000 11.420000 492.260000
73.364000 11.419000 492.206000
73.922000 11.418000 492.156000
74.468000 11.415000 492.033000
75.057000 11.419000 492.185000
75.610000 11.417000 492.109000
76.164000 11.415000 492.035000
76.729000 11.415000 492.038000
77.376000 11.427000 492.561000
77.924000 11.425000 492.447000
78.480000 11.423000 492.386000
78.992000 11.416000 492.056000
79.577000 11.418000 492.180000
80.132000 11.417000 492.115000
80.770000 11.427000 492.559000
81.308000 11.423000 492.396000
81.907000 11.428000 492.597000
82.421000 11.421000 492.289000
83.024000 11.426000 492.511000
83.530000 11.418000 492.162000
84.178000 11.429000 492.645000
84.728000 11.427000 492.557000
85.301000 11.428000 492.599000
85.830000 11.423000 492.386000
86.426000 11.427000 492.560000
86.996000 11.428000 492.586000
87.585000 11.431000 492.720000
88.137000 11.429000 492.642000
88.724000 11.432000 492.758000
89.280000 11.431000 492.705000
89.850000 11.431000 492.729000
90.429000 11.433000 492.804000
90.999000 11.433000 492.824000
91.572000 11.434000 492.860000
92.139000 11.434000 492.867000
92.728000 11.437000 492.991000
93.292000 11.437000 492.979000
93.875000 11.439000 493.070000
94.417000 11.436000 492.942000
94.970000 11.435000 492.876000
95.527000 11.433000 492.827000
96.176000 11.443000 493.253000
96.743000 11.443000 493.258000
97.310000 11.444000 493.262000
97.878000 11.444000 493.267000
98.476000 11.447000 493.425000
99.009000 11.443000 493.258000
99.576000 11.444000 493.262000
100.096000 11.438000 493.032000
100.739000 11.447000 493.409000
101.303000 11.447000 493.399000
101.875000 11.447000 493.424000
102.446000 11.448000 493.448000
103.059000 11.453000 493.667000
103.643000 11.455000 493.748000
104.223000 11.456000 493.811000
104.778000 11.455000 493.753000
105.275000 11.447000 493.426000
105.881000 11.452000 493.610000
106.531000 11.461000 493.997000
107.085000 11.459000 493.935000
107.616000 11.455000 493.768000
108.223000 11.460000 493.953000
108.848000 11.466000 494.213000
109.421000 11.466000 494.241000
109.963000 11.464000 494.126000
110.577000 11.468000 494.335000
111.119000 11.466000 494.218000
111.733000 11.471000 494.425000
112.285000 11.469000 494.357000
112.859000 11.470000 494.383000
113.413000 11.468000 494.322000
114.051000 11.475000 494.629000
114.579000 11.471000 494.457000
115.179000 11.474000 494.594000
115.740000 11.474000 494.564000
116.338000 11.477000 494.695000
116.826000 11.469000 494.353000
117.418000 11.471000 494.458000
118.052000 11.478000 494.737000
118.670000 11.483000 494.944000
119.214000 11.480000 494.841000
119.802000 11.482000 494.923000
120.413000 11.486000 495.100000
120.971000 11.485000 495.057000
121.508000 11.482000 494.928000
122.107000 11.485000 495.054000
122.698000 11.487000 495.145000
123.263000 11.487000 495.129000
123.869000 11.490000 495.279000
124.411000 11.488000 495.174000
124.977000 11.488000 495.163000
125.571000 11.490000 495.262000
126.220000 11.497000 495.579000
126.869000 11.505000 495.890000
127.416000 11.503000 495.805000
127.961000 11.500000 495.709000
128.526000 11.500000 495.694000
129.089000 11.499000 495.668000
129.662000 11.500000 495.685000
130.246000 11.501000 495.740000
130.952000 11.513000 496.259000
131.606000 11.520000 496.575000
132.031000 11.508000 496.030000
132.421000 11.492000 495.360000
133.029000 11.496000 495.504000
133.774000 11.511000 496.157000
134.430000 11.518000 496.476000
134.999000 11.518000 496.473000
135.517000 11.514000 496.280000
136.143000 11.518000 496.485000
136.827000 11.528000 496.899000
137.406000 11.529000 496.932000
137.899000 11.522000 496.651000
138.511000 11.526000 496.799000
139.098000 11.527000 496.859000
139.720000 11.531000 497.044000
140.270000 11.530000 496.968000
141.293000 11.567000 498.564000
141.708000 11.554000 498.012000
142.182000 11.546000 497.670000
142.716000 11.543000 497.539000
143.412000 11.553000 497.971000
143.877000 11.544000 497.602000
144.385000 11.539000 497.383000
144.958000 11.539000 497.390000
145.654000 11.549000 497.816000
146.352000 11.559000 498.247000
147.013000 11.566000 498.550000
147.693000 11.575000 498.914000
148.326000 11.579000 499.113000
149.012000 11.588000 499.492000
149.665000 11.594000 499.757000
150.317000 11.600000 500.017000
151.003000 11.609000 500.389000
151.715000 11.619000 500.844000
152.299000 11.620000 500.873000
153.034000 11.632000 501.394000
153.610000 11.632000 501.396000
154.363000 11.646000 501.972000
155.023000 11.652000 502.244000
155.756000 11.664000 502.747000
163.022000 11.729000 505.587000
163.363000 11.712000 504.847000
163.811000 11.703000 504.444000
164.192000 11.689000 503.835000
164.700000 11.684000 503.618000
165.114000 11.672000 503.118000
165.572000 11.664000 502.753000
165.982000 11.652000 502.249000
166.450000 11.644000 501.922000
166.904000 11.636000 501.554000
167.418000 11.632000 501.368000
167.862000 11.622000 500.973000
168.340000 11.616000 500.686000
168.828000 11.610000 500.428000
169.271000 11.601000 500.039000
169.796000 11.597000 499.893000
170.277000 11.591000 499.621000
170.816000 11.589000 499.521000
171.287000 11.582000 499.222000
171.838000 11.580000 499.156000
172.301000 11.573000 498.837000
172.880000 11.573000 498.854000
173.342000 11.566000 498.535000
173.947000 11.568000 498.629000
174.420000 11.561000 498.345000
175.016000 11.563000 498.412000
175.495000 11.557000 498.148000
176.088000 11.558000 498.208000
176.607000 11.555000 498.058000
177.185000 11.555000 498.073000
177.764000 11.556000 498.095000
178.343000 11.556000 498.114000
178.949000 11.558000 498.209000
179.517000 11.558000 498.198000
180.141000 11.561000 498.342000
180.678000 11.559000 498.243000
181.372000 11.567000 498.580000
181.922000 11.565000 498.518000
182.646000 11.575000 498.930000
183.219000 11.575000 498.930000
183.910000 11.583000 499.253000
184.550000 11.587000 499.432000
185.221000 11.593000 499.696000
185.946000 11.602000 500.104000
186.648000 11.610000 500.446000
187.402000 11.621000 500.924000
188.149000 11.632000 501.383000
188.953000 11.646000 501.988000
189.702000 11.657000 502.446000
25.117000 11.887000 488.194000
25.666000 11.881000 487.973000
26.211000 11.874000 487.677000
26.770000 11.874000 487.665000
27.309000 11.864000 487.287000
27.871000 11.866000 487.335000
28.421000 11.862000 487.170000
28.989000 11.865000 487.308000
29.543000 11.863000 487.218000
30.108000 11.865000 487.308000
30.658000 11.861000 487.163000
31.225000 11.864000 487.280000
31.784000 11.864000 487.273000
32.361000 11.870000 487.531000
32.924000 11.872000 487.589000
33.503000 11.878000 487.862000
34.067000 11.880000 487.918000
34.649000 11.887000 488.218000
35.230000 11.894000 488.502000
35.813000 11.902000 488.812000
36.392000 11.907000 489.047000
61.777000 12.039000 494.456000
62.292000 12.029000 494.040000
62.767000 12.011000 493.314000
63.257000 11.997000 492.719000
67.616000 11.967000 491.502000
68.271000 11.983000 492.158000
68.875000 11.990000 492.439000
69.419000 11.986000 492.287000
70.038000 11.995000 492.663000
70.558000 11.987000 492.340000
71.155000 11.993000 492.562000
71.714000 11.992000 492.517000
72.269000 11.990000 492.448000
72.845000 11.992000 492.514000
73.429000 11.995000 492.642000
73.982000 11.993000 492.559000
74.569000 11.996000 492.700000
75.152000 11.999000 492.813000
75.703000 11.997000 492.712000
76.228000 11.990000 492.449000
76.793000 11.990000 492.449000
77.422000 12.000000 492.851000
77.970000 11.997000 492.738000
78.545000 11.999000 492.794000
79.039000 11.988000 492.352000
79.652000 11.995000 492.645000
80.215000 11.994000 492.628000
80.837000 12.003000 492.973000
81.339000 11.993000 492.585000
81.935000 11.998000 492.767000
82.444000 11.990000 492.425000
83.088000 12.001000 492.891000
83.566000 11.988000 492.375000
84.217000 12.000000 492.874000
84.766000 11.998000 492.778000
85.387000 12.006000 493.095000
85.903000 11.999000 492.805000
86.486000 12.001000 492.905000
87.029000 11.998000 492.772000
87.635000 12.003000 492.998000
88.212000 12.005000 493.060000
88.789000 12.006000 493.121000
89.340000 12.004000 493.035000
89.906000 12.004000 493.035000
90.481000 12.006000 493.085000
91.058000 12.007000 493.145000
91.623000 12.007000 493.135000
92.186000 12.006000 493.117000
92.779000 12.010000 493.262000
93.354000 12.011000 493.307000
93.933000 12.013000 493.373000
94.478000 12.010000 493.259000
95.024000 12.007000 493.154000
95.552000 12.003000 492.957000
96.208000 12.014000 493.418000
96.786000 12.015000 493.476000
97.352000 12.015000 493.472000
97.966000 12.021000 493.710000
98.527000 12.020000 493.685000
99.042000 12.014000 493.423000
99.579000 12.010000 493.278000
100.131000 12.009000 493.206000
100.785000 12.019000 493.638000
101.361000 12.020000 493.680000
101.923000 12.020000 493.657000
102.482000 12.019000 493.618000
103.117000 12.027000 493.947000
103.689000 12.027000 493.970000
104.275000 12.029000 494.059000
104.847000 12.030000 494.079000
105.337000 12.021000 493.720000
105.944000 12.026000 493.902000
106.560000 12.031000 494.132000
107.106000 12.029000 494.030000
107.636000 12.025000 493.861000
108.254000 12.030000 494.095000
108.878000 12.036000 494.350000
109.484000 12.041000 494.522000
110.037000 12.039000 494.456000
110.606000 12.039000 494.461000
111.150000 12.037000 494.359000
111.753000 12.040000 494.514000
112.287000 12.037000 494.365000
112.905000 12.042000 494.586000
113.473000 12.042000 494.587000
114.103000 12.049000 494.856000
114.566000 12.038000 494.401000
115.175000 12.042000 494.577000
115.724000 12.040000 494.499000
116.380000 12.049000 494.871000
116.920000 12.046000 494.751000
117.496000 12.047000 494.787000
118.038000 12.044000 494.677000
118.674000 12.051000 494.961000
119.266000 12.054000 495.057000
119.885000 12.059000 495.266000
120.432000 12.057000 495.175000
120.984000 12.055000 495.108000
121.536000 12.053000 495.043000
122.185000 12.061000 495.371000
122.772000 12.063000 495.440000
123.282000 12.057000 495.206000
123.872000 12.059000 495.290000
124.457000 12.061000 495.354000
125.068000 12.065000 495.523000
125.612000 12.063000 495.423000
126.259000 12.070000 495.729000
126.784000 12.066000 495.557000
127.418000 12.072000 495.811000
127.946000 12.068000 495.650000
128.592000 12.075000 495.947000
129.158000 12.075000 495.933000
129.727000 12.075000 495.931000
130.254000 12.071000 495.772000
130.910000 12.079000 496.099000
131.538000 12.084000 496.319000
132.056000 12.080000 496.125000
132.509000 12.069000 495.689000
133.125000 12.073000 495.863000
133.832000 12.086000 496.374000
134.448000 12.090000 496.541000
135.003000 12.088000 496.487000
135.547000 12.086000 496.391000
136.160000 12.090000 496.547000
136.803000 12.096000 496.812000
137.420000 12.101000 496.982000
137.985000 12.100000 496.959000
138.580000 12.102000 497.048000
139.072000 12.095000 496.766000
139.680000 12.098000 496.900000
140.309000 12.104000 497.109000
141.339000 12.143000 498.728000
141.654000 12.121000 497.823000
142.125000 12.112000 497.470000
142.429000 12.090000 496.539000
143.196000 12.106000 497.220000
143.775000 12.107000 497.250000
144.326000 12.105000 497.180000
144.940000 12.109000 497.329000
145.670000 12.122000 497.870000
146.344000 12.131000 498.219000
147.008000 12.138000 498.531000
147.697000 12.148000 498.925000
148.331000 12.153000 499.132000
148.994000 12.160000 499.431000
149.626000 12.165000 499.629000
150.297000 12.173000 499.950000
150.976000 12.181000 500.300000
151.708000 12.194000 500.821000
152.295000 12.195000 500.859000
153.003000 12.206000 501.295000
153.581000 12.206000 501.300000
154.336000 12.220000 501.884000
154.996000 12.226000 502.156000
155.714000 12.238000 502.613000
162.985000 12.307000 505.474000
