107.817000 -31.528000 492.097000
108.389000 -31.530000 492.130000
108.822000 -31.492000 491.535000
109.360000 -31.484000 491.414000
109.841000 -31.460000 491.043000
110.373000 -31.451000 490.902000
110.822000 -31.419000 490.393000
111.342000 -31.407000 490.202000
111.799000 -31.377000 489.741000
112.311000 -31.363000 489.520000
112.784000 -31.338000 489.134000
113.284000 -31.321000 488.866000
113.756000 -31.296000 488.483000
114.211000 -31.267000 488.030000
114.719000 -31.253000 487.809000
115.190000 -31.229000 487.432000
115.699000 -31.215000 487.219000
116.163000 -31.190000 486.820000
116.711000 -31.187000 486.772000
117.115000 -31.146000 486.131000
117.639000 -31.137000 485.988000
118.081000 -31.106000 485.510000
118.597000 -31.095000 485.340000
133.155000 -26.840000 418.929000
133.525000 -26.818000 418.581000
133.879000 -26.793000 418.185000
134.262000 -26.773000 417.881000
134.623000 -26.749000 417.512000
135.004000 -26.730000 417.209000
135.376000 -26.709000 416.878000
135.759000 -26.690000 416.586000
136.152000 -26.673000 416.324000
136.544000 -26.656000 416.062000
136.947000 -26.642000 415.834000
137.340000 -26.626000 415.579000
137.752000 -26.613000 415.385000
138.132000 -26.594000 415.091000
138.568000 -26.587000 414.970000
138.960000 -26.570000 414.716000
139.415000 -26.566000 414.655000
139.801000 -26.549000 414.388000
140.264000 -26.547000 414.349000
140.670000 -26.534000 414.144000
141.121000 -26.529000 414.071000
141.544000 -26.519000 413.919000
142.006000 -26.517000 413.879000
142.446000 -26.510000 413.777000
142.898000 -26.506000 413.712000
143.355000 -26.502000 413.658000
143.817000 -26.500000 413.621000
144.287000 -26.499000 413.608000
144.737000 -26.495000 413.537000
145.240000 -26.500000 413.617000
145.698000 -26.497000 413.569000
146.215000 -26.504000 413.689000
146.652000 -26.497000 413.579000
147.202000 -26.511000 413.791000
147.656000 -26.507000 413.732000
148.195000 -26.519000 413.910000
148.670000 -26.519000 413.910000
149.246000 -26.537000 414.190000
149.787000 -26.548000 414.369000
150.343000 -26.562000 414.591000
150.877000 -26.572000 414.750000
151.435000 -26.587000 414.975000
152.035000 -26.608000 415.313000
152.593000 -26.623000 415.533000
153.193000 -26.644000 415.867000
153.794000 -26.665000 416.199000
154.522000 -26.709000 416.874000
155.084000 -26.723000 417.100000
155.808000 -26.765000 417.757000
105.608000 -30.978000 492.340000
106.223000 -30.993000 492.570000
106.651000 -30.953000 491.933000
107.221000 -30.954000 491.956000
107.669000 -30.921000 491.425000
108.191000 -30.908000 491.232000
108.662000 -30.882000 490.810000
109.199000 -30.875000 490.693000
109.654000 -30.844000 490.209000
110.172000 -30.831000 490.006000
110.617000 -30.799000 489.487000
111.146000 -30.789000 489.340000
111.609000 -30.762000 488.909000
112.111000 -30.746000 488.647000
112.593000 -30.724000 488.304000
113.074000 -30.703000 487.963000
113.541000 -30.677000 487.560000
114.024000 -30.657000 487.234000
114.517000 -30.639000 486.951000
114.998000 -30.618000 486.619000
115.509000 -30.606000 486.419000
115.953000 -30.575000 485.939000
116.462000 -30.563000 485.734000
116.899000 -30.531000 485.235000
117.436000 -30.526000 485.148000
117.857000 -30.491000 484.589000
118.407000 -30.489000 484.565000
118.820000 -30.452000 483.979000
133.311000 -26.390000 419.418000
133.675000 -26.367000 419.051000
134.022000 -26.340000 418.632000
134.387000 -26.318000 418.272000
134.750000 -26.295000 417.908000
135.130000 -26.275000 417.599000
135.496000 -26.253000 417.249000
135.883000 -26.236000 416.967000
136.277000 -26.219000 416.706000
136.662000 -26.201000 416.423000
137.069000 -26.188000 416.207000
137.463000 -26.172000 415.951000
137.868000 -26.158000 415.732000
138.260000 -26.142000 415.476000
138.699000 -26.135000 415.361000
139.089000 -26.118000 415.103000
139.536000 -26.113000 415.014000
139.922000 -26.096000 414.746000
140.389000 -26.094000 414.718000
140.794000 -26.081000 414.510000
141.244000 -26.076000 414.433000
141.676000 -26.068000 414.306000
142.136000 -26.065000 414.259000
142.584000 -26.060000 414.177000
143.028000 -26.054000 414.087000
143.482000 -26.051000 414.025000
143.943000 -26.048000 413.984000
144.416000 -26.048000 413.978000
144.862000 -26.042000 413.894000
145.356000 -26.046000 413.948000
145.828000 -26.045000 413.938000
146.342000 -26.052000 414.046000
146.785000 -26.046000 413.956000
147.342000 -26.061000 414.184000
147.792000 -26.056000 414.114000
148.353000 -26.071000 414.351000
148.854000 -26.076000 414.421000
149.391000 -26.086000 414.592000
149.926000 -26.096000 414.755000
150.479000 -26.110000 414.967000
151.027000 -26.122000 415.164000
151.594000 -26.138000 415.409000
152.191000 -26.158000 415.738000
152.798000 -26.181000 416.090000
153.411000 -26.204000 416.459000
154.004000 -26.223000 416.768000
154.685000 -26.258000 417.315000
104.487000 -30.415000 492.382000
105.097000 -30.428000 492.592000
105.507000 -30.384000 491.867000
106.055000 -30.379000 491.788000
106.506000 -30.346000 491.263000
107.041000 -30.338000 491.132000
107.506000 -30.310000 490.680000
108.049000 -30.304000 490.585000
108.504000 -30.274000 490.098000
109.067000 -30.274000 490.100000
109.475000 -30.232000 489.408000
110.003000 -30.222000 489.254000
110.468000 -30.196000 488.828000
110.982000 -30.183000 488.617000
111.466000 -30.162000 488.280000
111.968000 -30.146000 488.024000
112.434000 -30.121000 487.617000
112.913000 -30.099000 487.266000
113.398000 -30.080000 486.948000
113.896000 -30.064000 486.686000
114.391000 -30.047000 486.414000
114.862000 -30.024000 486.044000
115.366000 -30.010000 485.818000
115.804000 -29.979000 485.315000
116.314000 -29.967000 485.117000
116.773000 -29.941000 484.708000
117.310000 -29.936000 484.627000
117.723000 -29.900000 484.038000
118.272000 -29.898000 484.011000
118.651000 -29.854000 483.291000
119.209000 -29.855000 483.301000
134.158000 -25.886000 419.056000
134.533000 -25.865000 418.725000
134.882000 -25.840000 418.315000
135.246000 -25.818000 417.956000
135.617000 -25.797000 417.622000
136.007000 -25.780000 417.347000
136.405000 -25.765000 417.098000
136.794000 -25.748000 416.824000
137.201000 -25.735000 416.606000
137.579000 -25.716000 416.301000
137.998000 -25.705000 416.125000
138.387000 -25.688000 415.859000
138.829000 -25.682000 415.753000
139.219000 -25.666000 415.492000
139.670000 -25.661000 415.414000
140.067000 -25.646000 415.175000
140.516000 -25.641000 415.093000
140.920000 -25.628000 414.880000
141.383000 -25.626000 414.840000
141.814000 -25.617000 414.707000
142.268000 -25.613000 414.644000
142.711000 -25.608000 414.549000
143.160000 -25.603000 414.468000
143.620000 -25.600000 414.425000
144.081000 -25.597000 414.380000
144.549000 -25.596000 414.357000
145.006000 -25.592000 414.305000
145.511000 -25.598000 414.388000
145.974000 -25.595000 414.353000
146.499000 -25.604000 414.491000
146.940000 -25.598000 414.393000
147.482000 -25.609000 414.577000
147.951000 -25.608000 414.559000
148.521000 -25.624000 414.820000
149.009000 -25.626000 414.854000
149.562000 -25.639000 415.066000
150.104000 -25.651000 415.246000
150.651000 -25.663000 415.440000
151.204000 -25.676000 415.649000
151.792000 -25.694000 415.952000
152.360000 -25.710000 416.201000
152.964000 -25.731000 416.542000
153.661000 -25.767000 417.136000
154.225000 -25.782000 417.366000
104.346000 -29.810000 491.721000
104.893000 -29.805000 491.635000
105.380000 -29.783000 491.276000
105.871000 -29.762000 490.935000
106.317000 -29.730000 490.394000
106.901000 -29.735000 490.490000
107.334000 -29.699000 489.893000
107.914000 -29.704000 489.973000
108.347000 -29.669000 489.390000
108.872000 -29.659000 489.224000
109.310000 -29.625000 488.669000
109.822000 -29.612000 488.451000
110.303000 -29.590000 488.095000
110.804000 -29.574000 487.836000
111.287000 -29.554000 487.499000
111.789000 -29.539000 487.244000
112.240000 -29.510000 486.776000
112.737000 -29.494000 486.507000
113.233000 -29.478000 486.239000
113.711000 -29.457000 485.897000
114.205000 -29.440000 485.624000
114.657000 -29.413000 485.176000
115.156000 -29.398000 484.933000
115.596000 -29.369000 484.441000
116.129000 -29.363000 484.345000
116.566000 -29.333000 483.850000
117.099000 -29.327000 483.758000
117.523000 -29.294000 483.217000
118.049000 -29.287000 483.099000
118.453000 -29.250000 482.483000
119.002000 -29.249000 482.464000
134.286000 -25.429000 419.456000
134.676000 -25.412000 419.170000
135.021000 -25.386000 418.746000
135.382000 -25.364000 418.377000
135.755000 -25.344000 418.048000
136.143000 -25.326000 417.763000
136.548000 -25.313000 417.536000
136.936000 -25.296000 417.257000
137.325000 -25.279000 416.983000
137.710000 -25.262000 416.700000
138.136000 -25.252000 416.541000
138.501000 -25.232000 416.202000
138.952000 -25.227000 416.120000
139.354000 -25.213000 415.893000
139.801000 -25.208000 415.804000
140.205000 -25.194000 415.586000
140.655000 -25.189000 415.505000
141.065000 -25.178000 415.308000
141.516000 -25.173000 415.231000
141.938000 -25.163000 415.072000
142.387000 -25.158000 414.990000
142.845000 -25.155000 414.937000
143.305000 -25.152000 414.890000
143.774000 -25.151000 414.867000
144.227000 -25.147000 414.801000
144.696000 -25.146000 414.781000
145.151000 -25.142000 414.718000
145.663000 -25.148000 414.820000
146.130000 -25.146000 414.795000
146.641000 -25.152000 414.893000
147.115000 -25.152000 414.885000
147.637000 -25.160000 415.013000
148.128000 -25.162000 415.054000
148.686000 -25.176000 415.282000
149.189000 -25.180000 415.353000
149.761000 -25.196000 415.618000
150.277000 -25.203000 415.727000
150.839000 -25.217000 415.960000
151.398000 -25.231000 416.183000
151.990000 -25.249000 416.495000
152.592000 -25.270000 416.834000
153.172000 -25.287000 417.110000
153.873000 -25.323000 417.713000
103.214000 -29.244000 491.706000
103.720000 -29.228000 491.428000
104.239000 -29.215000 491.215000
104.735000 -29.196000 490.895000
105.194000 -29.167000 490.406000
105.735000 -29.161000 490.307000
106.151000 -29.121000 489.626000
106.773000 -29.137000 489.902000
107.195000 -29.099000 489.259000
107.771000 -29.103000 489.326000
108.187000 -29.064000 488.667000
108.689000 -29.048000 488.401000
109.175000 -29.028000 488.065000
109.683000 -29.014000 487.831000
110.137000 -28.986000 487.363000
110.663000 -28.977000 487.216000
111.113000 -28.949000 486.734000
111.617000 -28.934000 486.494000
112.088000 -28.912000 486.118000
112.588000 -28.897000 485.862000
113.080000 -28.880000 485.583000
113.544000 -28.857000 485.183000
114.045000 -28.842000 484.945000
114.499000 -28.816000 484.510000
114.997000 -28.802000 484.263000
115.460000 -28.779000 483.872000
115.980000 -28.770000 483.723000
116.395000 -28.735000 483.140000
116.938000 -28.732000 483.092000
117.367000 -28.701000 482.575000
117.894000 -28.695000 482.465000
118.319000 -28.663000 481.938000
118.864000 -28.661000 481.903000
119.249000 -28.621000 481.225000
119.815000 -28.624000 481.279000
120.226000 -28.591000 480.714000
120.753000 -28.585000 480.615000
121.195000 -28.559000 480.177000
134.817000 -24.956000 419.609000
135.177000 -24.934000 419.230000
135.551000 -24.914000 418.900000
135.919000 -24.893000 418.550000
136.297000 -24.875000 418.237000
136.698000 -24.860000 417.994000
137.077000 -24.842000 417.686000
137.468000 -24.826000 417.417000
137.859000 -24.810000 417.149000
138.269000 -24.798000 416.942000
138.649000 -24.780000 416.646000
139.076000 -24.771000 416.492000
139.474000 -24.757000 416.253000
139.949000 -24.756000 416.244000
140.347000 -24.742000 416.005000
140.801000 -24.738000 415.936000
141.208000 -24.726000 415.729000
141.661000 -24.721000 415.656000
142.088000 -24.713000 415.510000
142.544000 -24.709000 415.447000
142.992000 -24.704000 415.365000
143.452000 -24.701000 415.313000
143.921000 -24.700000 415.293000
144.370000 -24.695000 415.212000
144.867000 -24.698000 415.270000
145.328000 -24.696000 415.225000
145.833000 -24.701000 415.306000
146.290000 -24.697000 415.250000
146.829000 -24.708000 415.425000
147.298000 -24.706000 415.403000
147.844000 -24.718000 415.596000
148.311000 -24.716000 415.566000
148.879000 -24.731000 415.819000
149.372000 -24.734000 415.865000
149.952000 -24.751000 416.149000
150.472000 -24.758000 416.266000
151.049000 -24.774000 416.538000
151.643000 -24.793000 416.857000
152.221000 -24.809000 417.128000
152.863000 -24.835000 417.574000
153.512000 -24.863000 418.034000
154.212000 -24.898000 418.632000
102.554000 -28.653000 491.247000
103.097000 -28.647000 491.149000
103.582000 -28.626000 490.775000
104.080000 -28.607000 490.465000
104.611000 -28.599000 490.316000
105.000000 -28.551000 489.502000
105.629000 -28.570000 489.815000
106.038000 -28.528000 489.105000
106.602000 -28.529000 489.118000
107.052000 -28.499000 488.606000
107.543000 -28.481000 488.290000
108.000000 -28.453000 487.820000
108.530000 -28.445000 487.684000
108.978000 -28.416000 487.183000
109.506000 -28.408000 487.045000
109.949000 -28.378000 486.531000
110.471000 -28.369000 486.370000
110.928000 -28.343000 485.926000
111.413000 -28.324000 485.607000
111.918000 -28.311000 485.380000
112.391000 -28.289000 485.013000
112.870000 -28.270000 484.679000
113.346000 -28.250000 484.334000
113.842000 -28.235000 484.079000
114.313000 -28.214000 483.720000
114.819000 -28.202000 483.512000
115.261000 -28.174000 483.040000
115.774000 -28.164000 482.862000
116.203000 -28.134000 482.343000
116.743000 -28.131000 482.288000
117.154000 -28.096000 481.701000
117.720000 -28.099000 481.751000
118.117000 -28.062000 481.116000
118.643000 -28.056000 481.007000
119.060000 -28.024000 480.462000
119.634000 -28.029000 480.554000
120.054000 -27.999000 480.025000
120.564000 -27.989000 479.861000
120.998000 -27.962000 479.396000
121.594000 -27.972000 479.577000
134.995000 -24.507000 420.162000
135.350000 -24.484000 419.769000
135.734000 -24.466000 419.466000
136.097000 -24.445000 419.100000
136.472000 -24.426000 418.775000
136.857000 -24.409000 418.479000
137.223000 -24.388000 418.132000
137.627000 -24.375000 417.901000
138.021000 -24.360000 417.639000
138.432000 -24.348000 417.433000
138.820000 -24.332000 417.159000
139.245000 -24.322000 416.999000
139.635000 -24.307000 416.733000
140.101000 -24.305000 416.695000
140.499000 -24.291000 416.457000
140.958000 -24.287000 416.399000
141.365000 -24.275000 416.190000
141.825000 -24.272000 416.138000
142.266000 -24.266000 416.031000
142.715000 -24.261000 415.945000
143.157000 -24.255000 415.844000
143.619000 -24.252000 415.797000
144.086000 -24.251000 415.767000
144.539000 -24.247000 415.698000
145.031000 -24.249000 415.741000
145.487000 -24.245000 415.678000
145.992000 -24.250000 415.757000
146.454000 -24.247000 415.713000
147.011000 -24.261000 415.940000
147.462000 -24.256000 415.863000
148.022000 -24.270000 416.096000
148.494000 -24.269000 416.081000
149.077000 -24.286000 416.374000
149.585000 -24.291000 416.457000
150.171000 -24.308000 416.756000
150.717000 -24.319000 416.942000
151.276000 -24.332000 417.165000
151.900000 -24.355000 417.564000
152.508000 -24.376000 417.916000
153.119000 -24.397000 418.272000
153.749000 -24.421000 418.681000
154.404000 -24.448000 419.153000
101.957000 -28.080000 491.089000
102.427000 -28.054000 490.642000
102.895000 -28.028000 490.184000
103.458000 -28.028000 490.186000
103.859000 -27.985000 489.424000
104.466000 -27.997000 489.636000
104.886000 -27.959000 488.970000
105.462000 -27.963000 489.040000
105.903000 -27.931000 488.483000
106.421000 -27.920000 488.287000
106.872000 -27.891000 487.788000
107.392000 -27.881000 487.602000
107.833000 -27.850000 487.066000
108.399000 -27.852000 487.098000
108.813000 -27.814000 486.446000
109.348000 -27.809000 486.342000
109.809000 -27.784000 485.910000
110.301000 -27.767000 485.620000
110.791000 -27.750000 485.326000
111.277000 -27.733000 485.016000
111.753000 -27.713000 484.664000
112.242000 -27.696000 484.371000
112.717000 -27.676000 484.025000
113.204000 -27.659000 483.727000
113.708000 -27.646000 483.508000
114.168000 -27.624000 483.109000
114.678000 -27.613000 482.919000
115.100000 -27.581000 482.364000
115.621000 -27.573000 482.227000
116.068000 -27.548000 481.782000
116.607000 -27.545000 481.726000
117.026000 -27.513000 481.174000
117.587000 -27.515000 481.207000
117.963000 -27.474000 480.490000
118.516000 -27.474000 480.495000
118.942000 -27.445000 479.986000
119.497000 -27.446000 480.001000
119.937000 -27.421000 479.557000
120.465000 -27.415000 479.468000
120.884000 -27.386000 478.948000
121.541000 -27.410000 479.369000
135.185000 -24.058000 420.754000
135.527000 -24.033000 420.316000
135.895000 -24.013000 419.963000
136.264000 -23.993000 419.615000
136.641000 -23.975000 419.293000
137.019000 -23.957000 418.974000
137.402000 -23.939000 418.676000
137.806000 -23.926000 418.445000
138.185000 -23.909000 418.137000
138.594000 -23.896000 417.923000
138.981000 -23.880000 417.643000
139.418000 -23.873000 417.515000
139.819000 -23.860000 417.283000
140.268000 -23.855000 417.193000
140.667000 -23.841000 416.956000
141.123000 -23.837000 416.889000
141.532000 -23.825000 416.681000
141.985000 -23.821000 416.606000
142.433000 -23.816000 416.517000
142.890000 -23.813000 416.458000
143.332000 -23.807000 416.351000
143.791000 -23.803000 416.296000
144.261000 -23.802000 416.273000
144.725000 -23.800000 416.232000
145.219000 -23.802000 416.278000
145.665000 -23.797000 416.188000
146.187000 -23.804000 416.313000
146.647000 -23.801000 416.261000
147.194000 -23.813000 416.458000
147.666000 -23.812000 416.439000
148.230000 -23.825000 416.681000
148.713000 -23.826000 416.692000
149.288000 -23.842000 416.964000
149.816000 -23.849000 417.100000
150.411000 -23.868000 417.421000
150.959000 -23.879000 417.612000
151.546000 -23.896000 417.910000
152.131000 -23.912000 418.196000
152.777000 -23.938000 418.651000
101.276000 -27.484000 490.525000
101.737000 -27.457000 490.032000
102.305000 -27.458000 490.054000
102.732000 -27.422000 489.409000
103.321000 -27.429000 489.540000
103.733000 -27.389000 488.830000
104.287000 -27.388000 488.797000
104.770000 -27.367000 488.433000
105.267000 -27.351000 488.136000
105.739000 -27.328000 487.727000
106.267000 -27.319000 487.581000
106.668000 -27.279000 486.853000
107.260000 -27.287000 487.003000
107.681000 -27.252000 486.382000
108.210000 -27.245000 486.245000
108.659000 -27.217000 485.759000
109.157000 -27.203000 485.493000
109.648000 -27.186000 485.197000
110.132000 -27.168000 484.879000
110.613000 -27.149000 484.544000
111.107000 -27.134000 484.273000
111.553000 -27.107000 483.794000
112.046000 -27.092000 483.528000
112.541000 -27.078000 483.267000
113.015000 -27.058000 482.920000
113.525000 -27.048000 482.732000
113.972000 -27.022000 482.279000
114.464000 -27.008000 482.017000
114.890000 -26.978000 481.485000
115.423000 -26.973000 481.401000
115.861000 -26.946000 480.923000
116.400000 -26.943000 480.868000
116.819000 -26.913000 480.324000
117.339000 -26.906000 480.194000
117.734000 -26.870000 479.555000
118.310000 -26.876000 479.660000
118.719000 -26.843000 479.085000
119.284000 -26.847000 479.148000
119.703000 -26.817000 478.621000
120.354000 -26.840000 479.025000
120.851000 -26.828000 478.814000
121.562000 -26.864000 479.450000
122.207000 -26.885000 479.820000
135.390000 -23.611000 421.393000
135.733000 -23.586000 420.955000
136.094000 -23.565000 420.577000
136.468000 -23.546000 420.242000
136.836000 -23.527000 419.891000
137.209000 -23.508000 419.557000
137.586000 -23.490000 419.237000
138.002000 -23.479000 419.038000
138.375000 -23.461000 418.712000
138.790000 -23.450000 418.514000
139.164000 -23.432000 418.193000
139.607000 -23.425000 418.082000
139.997000 -23.410000 417.812000
140.446000 -23.405000 417.721000
140.849000 -23.392000 417.494000
141.296000 -23.387000 417.399000
141.708000 -23.376000 417.200000
142.161000 -23.372000 417.124000
142.596000 -23.365000 416.996000
143.064000 -23.363000 416.965000
143.519000 -23.359000 416.893000
143.977000 -23.356000 416.834000
144.447000 -23.354000 416.809000
144.925000 -23.354000 416.807000
145.422000 -23.357000 416.860000
145.868000 -23.352000 416.768000
146.376000 -23.356000 416.851000
146.866000 -23.358000 416.883000
147.395000 -23.366000 417.027000
147.910000 -23.372000 417.128000
148.451000 -23.382000 417.301000
148.929000 -23.382000 417.299000
149.525000 -23.400000 417.625000
150.063000 -23.409000 417.788000
150.647000 -23.425000 418.078000
151.185000 -23.434000 418.237000
151.805000 -23.456000 418.622000
152.448000 -23.481000 419.069000
100.121000 -26.914000 490.385000
100.556000 -26.879000 489.762000
101.166000 -26.892000 489.992000
101.579000 -26.852000 489.272000
102.156000 -26.856000 489.342000
102.607000 -26.827000 488.812000
103.119000 -26.815000 488.583000
103.631000 -26.802000 488.349000
104.127000 -26.785000 488.044000
104.575000 -26.756000 487.520000
105.125000 -26.754000 487.478000
105.529000 -26.715000 486.759000
106.132000 -26.726000 486.962000
106.545000 -26.689000 486.293000
107.107000 -26.690000 486.312000
107.530000 -26.656000 485.697000
108.019000 -26.639000 485.391000
108.504000 -26.622000 485.064000
109.013000 -26.610000 484.854000
109.473000 -26.586000 484.425000
110.002000 -26.580000 484.305000
110.436000 -26.550000 483.769000
110.934000 -26.537000 483.518000
111.408000 -26.517000 483.167000
111.894000 -26.501000 482.871000
112.410000 -26.492000 482.707000
112.860000 -26.468000 482.259000
113.365000 -26.456000 482.050000
113.807000 -26.430000 481.580000
114.298000 -26.416000 481.318000
114.753000 -26.394000 480.910000
115.274000 -26.386000 480.781000
115.695000 -26.357000 480.236000
116.251000 -26.357000 480.253000
116.651000 -26.323000 479.633000
117.179000 -26.318000 479.539000
117.604000 -26.290000 479.027000
118.174000 -26.295000 479.108000
118.581000 -26.263000 478.529000
119.198000 -26.278000 478.803000
119.591000 -26.243000 478.174000
120.312000 -26.281000 478.857000
120.864000 -26.281000 478.866000
121.611000 -26.324000 479.643000
122.268000 -26.347000 480.062000
135.951000 -23.140000 421.631000
136.305000 -23.118000 421.230000
136.654000 -23.095000 420.813000
137.015000 -23.075000 420.439000
137.391000 -23.057000 420.112000
137.770000 -23.040000 419.798000
138.189000 -23.029000 419.608000
138.561000 -23.011000 419.276000
138.977000 -23.000000 419.077000
139.363000 -22.984000 418.791000
139.786000 -22.975000 418.617000
140.169000 -22.959000 418.328000
140.628000 -22.955000 418.262000
141.031000 -22.943000 418.034000
141.485000 -22.938000 417.956000
141.896000 -22.927000 417.754000
142.345000 -22.922000 417.664000
142.789000 -22.917000 417.558000
143.261000 -22.916000 417.538000
143.721000 -22.912000 417.482000
144.170000 -22.908000 417.393000
144.642000 -22.906000 417.372000
145.122000 -22.907000 417.374000
145.618000 -22.909000 417.423000
146.085000 -22.907000 417.388000
146.604000 -22.913000 417.500000
147.101000 -22.916000 417.551000
147.645000 -22.926000 417.734000
148.130000 -22.927000 417.749000
148.702000 -22.941000 418.008000
149.196000 -22.943000 418.046000
149.799000 -22.962000 418.390000
150.350000 -22.973000 418.586000
150.958000 -22.993000 418.941000
151.534000 -23.007000 419.204000
152.152000 -23.028000 419.580000
152.802000 -23.053000 420.041000
99.401000 -26.309000 489.612000
100.036000 -26.328000 489.967000
100.458000 -26.291000 489.281000
101.016000 -26.290000 489.264000
101.471000 -26.262000 488.748000
101.963000 -26.245000 488.416000
102.503000 -26.240000 488.321000
102.986000 -26.220000 487.949000
103.477000 -26.202000 487.622000
103.993000 -26.191000 487.419000
104.370000 -26.145000 486.566000
104.993000 -26.161000 486.864000
105.383000 -26.119000 486.086000
105.949000 -26.121000 486.121000
106.411000 -26.098000 485.680000
106.884000 -26.077000 485.296000
107.341000 -26.053000 484.847000
107.869000 -26.046000 484.717000
108.311000 -26.018000 484.204000
108.850000 -26.014000 484.125000
109.303000 -25.990000 483.673000
109.814000 -25.979000 483.475000
110.262000 -25.954000 483.007000
110.735000 -25.935000 482.652000
111.250000 -25.926000 482.481000
111.722000 -25.907000 482.129000
112.227000 -25.895000 481.918000
112.686000 -25.874000 481.517000
113.153000 -25.854000 481.152000
113.617000 -25.834000 480.777000
114.132000 -25.826000 480.618000
114.566000 -25.799000 480.124000
115.091000 -25.793000 480.017000
115.511000 -25.764000 479.473000
116.054000 -25.762000 479.438000
116.445000 -25.727000 478.783000
116.989000 -25.726000 478.759000
117.384000 -25.692000 478.129000
117.979000 -25.702000 478.318000
118.393000 -25.673000 477.771000
119.145000 -25.717000 478.588000
119.611000 -25.699000 478.255000
120.402000 -25.750000 479.216000
120.955000 -25.751000 479.225000
121.704000 -25.793000 480.011000
122.268000 -25.796000 480.063000
122.823000 -25.796000 480.075000
123.320000 -25.785000 479.866000
123.751000 -25.760000 479.400000
124.264000 -25.752000 479.256000
136.875000 -22.649000 421.497000
137.239000 -22.629000 421.129000
137.619000 -22.612000 420.811000
137.994000 -22.594000 420.480000
138.398000 -22.581000 420.242000
138.776000 -22.564000 419.924000
139.192000 -22.554000 419.724000
139.581000 -22.539000 419.445000
140.009000 -22.530000 419.286000
140.404000 -22.516000 419.027000
140.843000 -22.509000 418.903000
141.248000 -22.497000 418.676000
141.700000 -22.493000 418.592000
142.111000 -22.482000 418.385000
142.556000 -22.476000 418.283000
142.994000 -22.469000 418.160000
143.475000 -22.470000 418.162000
143.940000 -22.467000 418.116000
144.399000 -22.464000 418.058000
144.882000 -22.464000 418.064000
145.334000 -22.460000 417.984000
145.844000 -22.465000 418.069000
146.316000 -22.463000 418.046000
146.857000 -22.473000 418.222000
147.329000 -22.472000 418.198000
147.876000 -22.482000 418.387000
148.367000 -22.483000 418.417000
148.961000 -22.500000 418.736000
149.503000 -22.510000 418.906000
150.088000 -22.525000 419.197000
150.657000 -22.538000 419.441000
151.288000 -22.561000 419.857000
151.860000 -22.574000 420.104000
152.543000 -22.604000 420.659000
99.350000 -25.733000 489.358000
99.919000 -25.735000 489.394000
100.341000 -25.699000 488.713000
100.781000 -25.669000 488.126000
101.361000 -25.673000 488.219000
101.824000 -25.649000 487.754000
102.292000 -25.626000 487.312000
102.873000 -25.631000 487.413000
103.256000 -25.588000 486.585000
103.855000 -25.597000 486.771000
104.255000 -25.558000 486.032000
104.801000 -25.555000 485.972000
105.267000 -25.533000 485.551000
105.773000 -25.521000 485.314000
106.223000 -25.495000 484.822000
106.738000 -25.485000 484.633000
107.162000 -25.453000 484.036000
107.745000 -25.460000 484.159000
108.162000 -25.427000 483.539000
108.698000 -25.423000 483.453000
109.156000 -25.400000 483.020000
109.619000 -25.379000 482.620000
110.114000 -25.365000 482.361000
110.604000 -25.351000 482.080000
111.090000 -25.335000 481.787000
111.584000 -25.322000 481.532000
112.055000 -25.303000 481.181000
112.526000 -25.285000 480.831000
113.015000 -25.271000 480.565000
113.460000 -25.247000 480.112000
113.989000 -25.242000 480.017000
114.412000 -25.214000 479.481000
114.946000 -25.210000 479.411000
115.377000 -25.184000 478.916000
115.929000 -25.185000 478.922000
116.346000 -25.156000 478.376000
116.880000 -25.153000 478.316000
117.251000 -25.114000 477.589000
117.900000 -25.136000 477.998000
118.284000 -25.101000 477.332000
119.096000 -25.157000 478.392000
119.640000 -25.156000 478.371000
120.442000 -25.208000 479.375000
121.029000 -25.216000 479.522000
121.716000 -25.244000 480.060000
122.215000 -25.234000 479.855000
122.694000 -25.219000 479.574000
123.175000 -25.204000 479.299000
123.632000 -25.185000 478.938000
124.102000 -25.169000 478.630000
124.583000 -25.155000 478.366000
137.442000 -22.178000 421.750000
137.832000 -22.163000 421.463000
138.208000 -22.146000 421.133000
138.598000 -22.131000 420.850000
138.988000 -22.116000 420.565000
139.406000 -22.106000 420.371000
139.811000 -22.093000 420.136000
140.234000 -22.084000 419.959000
140.622000 -22.069000 419.677000
141.060000 -22.062000 419.547000
141.470000 -22.051000 419.334000
141.927000 -22.047000 419.262000
142.343000 -22.037000 419.069000
142.779000 -22.030000 418.938000
143.218000 -22.024000 418.815000
143.713000 -22.026000 418.856000
144.175000 -22.023000 418.799000
144.640000 -22.021000 418.755000
145.121000 -22.021000 418.755000
145.590000 -22.019000 418.721000
146.111000 -22.025000 418.837000
146.584000 -22.024000 418.813000
147.123000 -22.032000 418.980000
147.606000 -22.033000 418.984000
148.158000 -22.043000 419.183000
148.688000 -22.050000 419.321000
149.265000 -22.065000 419.590000
149.823000 -22.076000 419.804000
150.437000 -22.095000 420.172000
150.993000 -22.106000 420.376000
151.649000 -22.131000 420.857000
152.258000 -22.149000 421.205000
99.353000 -25.172000 489.373000
99.864000 -25.159000 489.125000
100.299000 -25.128000 488.506000
100.710000 -25.090000 487.780000
101.154000 -25.062000 487.222000
101.730000 -25.066000 487.302000
102.132000 -25.027000 486.552000
102.726000 -25.036000 486.719000
103.121000 -24.996000 485.944000
103.665000 -24.993000 485.880000
104.141000 -24.973000 485.498000
104.638000 -24.959000 485.219000
105.119000 -24.940000 484.868000
105.634000 -24.931000 484.677000
106.016000 -24.890000 483.878000
106.620000 -24.901000 484.099000
107.034000 -24.868000 483.459000
107.558000 -24.861000 483.319000
108.029000 -24.841000 482.942000
108.501000 -24.823000 482.575000
108.981000 -24.806000 482.248000
109.463000 -24.789000 481.930000
109.938000 -24.772000 481.586000
110.450000 -24.763000 481.409000
110.903000 -24.740000 480.977000
111.391000 -24.726000 480.700000
111.880000 -24.712000 480.428000
112.326000 -24.689000 479.977000
112.843000 -24.681000 479.831000
113.281000 -24.657000 479.353000
113.790000 -24.648000 479.178000
114.225000 -24.623000 478.697000
114.759000 -24.620000 478.632000
115.197000 -24.596000 478.167000
115.751000 -24.597000 478.189000
116.141000 -24.563000 477.535000
116.703000 -24.566000 477.589000
117.107000 -24.536000 477.000000
117.875000 -24.582000 477.894000
118.305000 -24.557000 477.417000
119.156000 -24.620000 478.631000
119.711000 -24.621000 478.655000
120.440000 -24.658000 479.367000
120.967000 -24.653000 479.277000
121.525000 -24.654000 479.305000
121.992000 -24.637000 478.977000
122.494000 -24.628000 478.788000
122.932000 -24.606000 478.356000
123.433000 -24.596000 478.167000
123.892000 -24.578000 477.821000
124.317000 -24.553000 477.344000
124.831000 -24.547000 477.215000
141.730000 -21.609000 420.106000
142.201000 -21.607000 420.071000
142.612000 -21.597000 419.861000
143.062000 -21.592000 419.768000
143.510000 -21.587000 419.668000
143.973000 -21.584000 419.612000
144.427000 -21.580000 419.532000
144.896000 -21.578000 419.497000
145.390000 -21.580000 419.532000
145.885000 -21.582000 419.568000
146.410000 -21.588000 419.692000
146.893000 -21.588000 419.695000
147.452000 -21.599000 419.915000
147.918000 -21.597000 419.870000
148.508000 -21.613000 420.174000
149.043000 -21.620000 420.323000
149.627000 -21.635000 420.607000
150.175000 -21.644000 420.789000
150.884000 -21.677000 421.422000
151.402000 -21.682000 421.517000
152.103000 -21.713000 422.118000
99.436000 -24.631000 489.783000
99.953000 -24.620000 489.562000
100.331000 -24.575000 488.663000
100.721000 -24.533000 487.836000
101.143000 -24.500000 487.171000
101.669000 -24.491000 487.008000
102.037000 -24.446000 486.097000
102.512000 -24.426000 485.705000
102.999000 -24.409000 485.372000
103.503000 -24.396000 485.121000
103.936000 -24.367000 484.545000
104.511000 -24.372000 484.627000
104.889000 -24.330000 483.806000
105.491000 -24.341000 484.018000
105.893000 -24.306000 483.318000
106.444000 -24.305000 483.300000
106.890000 -24.280000 482.809000
107.374000 -24.264000 482.492000
107.864000 -24.250000 482.204000
108.355000 -24.236000 481.924000
108.801000 -24.212000 481.453000
109.340000 -24.209000 481.390000
109.777000 -24.183000 480.883000
110.276000 -24.172000 480.652000
110.751000 -24.155000 480.317000
111.210000 -24.135000 479.917000
111.735000 -24.129000 479.804000
112.179000 -24.106000 479.350000
112.687000 -24.097000 479.167000
113.124000 -24.073000 478.690000
113.633000 -24.064000 478.517000
114.093000 -24.045000 478.141000
114.634000 -24.044000 478.108000
115.054000 -24.017000 477.574000
115.632000 -24.023000 477.697000
116.017000 -23.989000 477.024000
116.599000 -23.996000 477.164000
117.043000 -23.975000 476.741000
117.867000 -24.031000 477.864000
118.363000 -24.021000 477.650000
119.221000 -24.083000 478.892000
119.773000 -24.084000 478.902000
120.411000 -24.101000 479.253000
120.859000 -24.081000 478.846000
121.390000 -24.077000 478.771000
121.828000 -24.055000 478.334000
122.345000 -24.049000 478.210000
122.813000 -24.033000 477.894000
123.266000 -24.014000 477.522000
123.741000 -24.000000 477.240000
124.134000 -23.970000 476.643000
124.660000 -23.966000 476.563000
125.096000 -23.945000 476.140000
125.620000 -23.940000 476.052000
142.023000 -21.171000 420.974000
142.472000 -21.165000 420.874000
142.897000 -21.157000 420.702000
143.358000 -21.154000 420.636000
143.811000 -21.149000 420.548000
144.257000 -21.144000 420.442000
144.714000 -21.140000 420.365000
145.185000 -21.138000 420.333000
145.714000 -21.145000 420.466000
146.192000 -21.144000 420.452000
146.713000 -21.150000 420.561000
147.214000 -21.152000 420.612000
147.792000 -21.166000 420.884000
148.276000 -21.166000 420.887000
148.867000 -21.181000 421.189000
149.502000 -21.203000 421.617000
150.051000 -21.212000 421.799000
150.595000 -21.220000 421.967000
151.328000 -21.255000 422.662000
99.605000 -24.109000 490.618000
100.019000 -24.074000 489.886000
100.397000 -24.029000 488.987000
100.810000 -23.994000 488.268000
101.240000 -23.963000 487.636000
101.675000 -23.934000 487.036000
102.030000 -23.886000 486.063000
102.443000 -23.852000 485.376000
102.923000 -23.834000 485.011000
103.417000 -23.819000 484.716000
103.790000 -23.777000 483.861000
104.371000 -23.783000 483.981000
104.747000 -23.743000 483.152000
105.298000 -23.742000 483.135000
105.771000 -23.723000 482.761000
106.236000 -23.704000 482.357000
106.710000 -23.686000 481.996000
107.238000 -23.680000 481.880000
107.665000 -23.652000 481.313000
108.206000 -23.650000 481.262000
108.651000 -23.626000 480.786000
109.157000 -23.616000 480.583000
109.619000 -23.597000 480.191000
110.069000 -23.575000 479.749000
110.600000 -23.571000 479.662000
111.058000 -23.551000 479.262000
111.564000 -23.542000 479.070000
112.026000 -23.524000 478.695000
112.485000 -23.505000 478.311000
112.952000 -23.488000 477.963000
113.459000 -23.479000 477.784000
113.874000 -23.451000 477.226000
114.461000 -23.459000 477.388000
114.898000 -23.437000 476.926000
115.483000 -23.444000 477.080000
115.915000 -23.421000 476.606000
116.598000 -23.448000 477.160000
117.053000 -23.430000 476.783000
117.927000 -23.495000 478.106000
118.437000 -23.487000 477.950000
119.219000 -23.533000 478.885000
119.694000 -23.518000 478.586000
120.253000 -23.520000 478.624000
120.648000 -23.490000 478.013000
121.166000 -23.484000 477.891000
121.627000 -23.467000 477.544000
122.116000 -23.456000 477.314000
122.611000 -23.446000 477.106000
123.030000 -23.421000 476.607000
123.499000 -23.406000 476.306000
123.951000 -23.388000 475.941000
124.447000 -23.379000 475.749000
124.895000 -23.360000 475.372000
125.423000 -23.357000 475.306000
125.817000 -23.329000 474.735000
126.298000 -23.317000 474.492000
126.627000 -23.277000 473.686000
127.091000 -23.263000 473.387000
158.665000 -21.232000 432.067000
159.406000 -21.265000 432.733000
160.060000 -21.286000 433.158000
99.732000 -23.576000 491.240000
100.117000 -23.534000 490.363000
100.488000 -23.489000 489.427000
100.918000 -23.458000 488.787000
101.359000 -23.431000 488.209000
101.739000 -23.389000 487.344000
102.104000 -23.345000 486.419000
102.533000 -23.315000 485.803000
103.000000 -23.295000 485.375000
103.415000 -23.262000 484.707000
103.753000 -23.214000 483.688000
104.246000 -23.200000 483.401000
104.673000 -23.171000 482.810000
105.154000 -23.155000 482.472000
105.579000 -23.127000 481.885000
106.099000 -23.120000 481.733000
106.504000 -23.088000 481.063000
107.105000 -23.098000 481.282000
107.529000 -23.070000 480.706000
108.044000 -23.063000 480.544000
108.507000 -23.044000 480.150000
108.961000 -23.023000 479.723000
109.459000 -23.012000 479.488000
109.944000 -22.998000 479.202000
110.436000 -22.986000 478.951000
110.930000 -22.975000 478.709000
111.390000 -22.956000 478.325000
111.856000 -22.939000 477.967000
112.353000 -22.929000 477.750000
112.803000 -22.908000 477.330000
113.337000 -22.906000 477.273000
113.746000 -22.878000 476.687000
114.305000 -22.880000 476.739000
114.730000 -22.856000 476.228000
115.394000 -22.879000 476.714000
115.843000 -22.859000 476.310000
116.637000 -22.908000 477.321000
117.078000 -22.887000 476.884000
118.040000 -22.968000 478.563000
118.473000 -22.945000 478.092000
119.130000 -22.966000 478.527000
119.557000 -22.942000 478.039000
120.114000 -22.944000 478.071000
120.532000 -22.919000 477.552000
121.011000 -22.906000 477.279000
121.492000 -22.893000 477.013000
121.962000 -22.879000 476.712000
122.423000 -22.863000 476.376000
122.873000 -22.845000 476.000000
123.329000 -22.828000 475.649000
123.810000 -22.816000 475.399000
124.309000 -22.807000 475.220000
124.756000 -22.789000 474.846000
125.283000 -22.786000 474.775000
125.664000 -22.756000 474.157000
126.135000 -22.743000 473.881000
126.491000 -22.709000 473.174000
126.869000 -22.679000 472.560000
127.151000 -22.633000 471.595000
127.663000 -22.628000 471.483000
128.021000 -22.595000 470.809000
158.072000 -20.723000 431.802000
158.687000 -20.739000 432.128000
159.393000 -20.766000 432.696000
160.033000 -20.785000 433.083000
160.783000 -20.818000 433.766000
100.219000 -22.994000 490.863000
100.618000 -22.957000 490.063000
101.055000 -22.928000 489.453000
101.443000 -22.889000 488.615000
101.835000 -22.851000 487.807000
102.221000 -22.812000 486.977000
102.678000 -22.789000 486.491000
103.059000 -22.750000 485.653000
103.482000 -22.721000 485.025000
103.817000 -22.672000 483.990000
104.296000 -22.656000 483.632000
104.690000 -22.621000 482.889000
105.108000 -22.591000 482.261000
105.496000 -22.556000 481.506000
106.014000 -22.548000 481.346000
106.396000 -22.512000 480.574000
106.923000 -22.507000 480.465000
107.407000 -22.493000 480.162000
107.853000 -22.471000 479.691000
108.325000 -22.455000 479.345000
108.814000 -22.442000 479.074000
109.272000 -22.423000 478.672000
109.790000 -22.417000 478.533000
110.252000 -22.399000 478.154000
110.736000 -22.386000 477.874000
111.211000 -22.371000 477.556000
111.636000 -22.346000 477.030000
112.213000 -22.352000 477.154000
112.631000 -22.326000 476.603000
113.138000 -22.318000 476.432000
113.568000 -22.295000 475.942000
114.189000 -22.310000 476.255000
114.657000 -22.295000 475.927000
115.391000 -22.331000 476.701000
115.864000 -22.317000 476.397000
116.689000 -22.370000 477.531000
117.160000 -22.355000 477.217000
117.984000 -22.408000 478.338000
118.347000 -22.372000 477.585000
118.931000 -22.379000 477.729000
119.349000 -22.355000 477.206000
119.863000 -22.348000 477.070000
120.328000 -22.333000 476.744000
120.807000 -22.320000 476.472000
121.269000 -22.304000 476.138000
121.748000 -22.292000 475.873000
122.180000 -22.271000 475.428000
122.665000 -22.260000 475.194000
123.157000 -22.250000 474.985000
123.601000 -22.232000 474.597000
124.125000 -22.228000 474.516000
124.521000 -22.202000 473.949000
124.954000 -22.182000 473.527000
125.315000 -22.150000 472.839000
125.759000 -22.132000 472.466000
126.097000 -22.097000 471.702000
126.622000 -22.094000 471.639000
126.951000 -22.057000 470.853000
127.483000 -22.055000 470.818000
127.865000 -22.028000 470.238000
128.353000 -22.019000 470.047000
128.768000 -21.998000 469.589000
129.274000 -21.992000 469.472000
129.665000 -21.967000 468.934000
130.183000 -21.964000 468.863000
130.600000 -21.943000 468.428000
131.044000 -21.928000 468.091000
131.498000 -21.914000 467.794000
131.924000 -21.895000 467.400000
155.721000 -20.180000 430.787000
156.309000 -20.192000 431.043000
156.882000 -20.202000 431.259000
157.479000 -20.215000 431.535000
158.096000 -20.231000 431.868000
158.701000 -20.245000 432.165000
159.402000 -20.271000 432.723000
160.015000 -20.285000 433.035000
160.746000 -20.315000 433.666000
161.392000 -20.334000 434.063000
100.340000 -22.458000 491.455000
100.766000 -22.427000 490.782000
101.168000 -22.391000 490.000000
101.545000 -22.350000 489.104000
101.939000 -22.314000 488.305000
102.359000 -22.283000 487.631000
102.788000 -22.255000 487.012000
103.155000 -22.213000 486.105000
103.542000 -22.177000 485.302000
103.952000 -22.145000 484.620000
104.391000 -22.120000 484.074000
104.751000 -22.079000 483.168000
105.141000 -22.045000 482.414000
105.525000 -22.009000 481.636000
105.991000 -21.991000 481.242000
106.367000 -21.954000 480.443000
106.797000 -21.930000 479.897000
107.307000 -21.921000 479.716000
107.746000 -21.898000 479.217000
108.161000 -21.871000 478.619000
108.686000 -21.866000 478.512000
109.128000 -21.845000 478.039000
109.626000 -21.835000 477.820000
110.110000 -21.822000 477.536000
110.541000 -21.798000 477.030000
111.084000 -21.798000 477.011000
111.526000 -21.777000 476.557000
112.049000 -21.772000 476.455000
112.496000 -21.753000 476.031000
113.025000 -21.750000 475.958000
113.428000 -21.722000 475.357000
114.127000 -21.751000 475.995000
114.628000 -21.742000 475.804000
115.453000 -21.795000 476.958000
115.891000 -21.775000 476.508000
116.742000 -21.831000 477.749000
117.246000 -21.823000 477.568000
117.892000 -21.841000 477.964000
118.252000 -21.806000 477.202000
118.795000 -21.805000 477.180000
119.231000 -21.785000 476.734000
119.733000 -21.777000 476.552000
120.169000 -21.757000 476.114000
120.665000 -21.748000 475.914000
121.099000 -21.727000 475.470000
121.561000 -21.712000 475.142000
122.033000 -21.699000 474.858000
122.492000 -21.684000 474.524000
123.022000 -21.681000 474.464000
123.440000 -21.659000 473.977000
123.948000 -21.653000 473.841000
124.332000 -21.625000 473.230000
124.759000 -21.605000 472.790000
125.122000 -21.574000 472.111000
125.560000 -21.556000 471.720000
125.883000 -21.518000 470.902000
126.407000 -21.516000 470.839000
126.784000 -21.488000 470.233000
127.319000 -21.487000 470.212000
127.699000 -21.460000 469.624000
128.219000 -21.457000 469.554000
128.610000 -21.432000 469.014000
129.142000 -21.431000 468.992000
129.544000 -21.409000 468.497000
130.027000 -21.400000 468.301000
130.451000 -21.381000 467.893000
130.869000 -21.361000 467.466000
131.348000 -21.352000 467.260000
131.785000 -21.336000 466.906000
132.261000 -21.326000 466.696000
155.210000 -19.683000 430.739000
155.756000 -19.690000 430.881000
156.352000 -19.702000 431.160000
156.925000 -19.712000 431.375000
157.507000 -19.723000 431.613000
158.120000 -19.738000 431.935000
158.717000 -19.750000 432.210000
159.390000 -19.772000 432.688000
159.974000 -19.783000 432.925000
160.727000 -19.815000 433.615000
161.338000 -19.829000 433.919000
100.484000 -21.925000 492.162000
100.882000 -21.889000 491.347000
101.270000 -21.851000 490.496000
101.646000 -21.810000 489.595000
102.090000 -21.785000 489.029000
102.503000 -21.754000 488.320000
102.891000 -21.717000 487.502000
103.260000 -21.677000 486.600000
103.676000 -21.647000 485.933000
104.076000 -21.615000 485.198000
104.474000 -21.582000 484.458000
104.841000 -21.543000 483.584000
105.267000 -21.516000 482.991000
105.639000 -21.479000 482.159000
106.056000 -21.452000 481.539000
106.417000 -21.413000 480.671000
106.840000 -21.387000 480.091000
107.287000 -21.366000 479.625000
107.706000 -21.340000 479.040000
108.083000 -21.306000 478.274000
108.557000 -21.291000 477.942000
109.010000 -21.273000 477.521000
109.450000 -21.252000 477.052000
109.958000 -21.244000 476.880000
110.385000 -21.221000 476.359000
110.884000 -21.212000 476.151000
111.377000 -21.201000 475.920000
111.880000 -21.193000 475.737000
112.349000 -21.179000 475.409000
112.941000 -21.187000 475.604000
113.416000 -21.174000 475.307000
114.162000 -21.211000 476.143000
114.648000 -21.200000 475.888000
115.487000 -21.254000 477.099000
115.953000 -21.239000 476.760000
116.722000 -21.279000 477.669000
117.125000 -21.253000 477.073000
117.665000 -21.251000 477.043000
118.055000 -21.223000 476.408000
118.609000 -21.224000 476.434000
119.017000 -21.200000 475.880000
119.534000 -21.194000 475.763000
119.952000 -21.172000 475.252000
120.443000 -21.162000 475.037000
120.893000 -21.145000 474.662000
121.352000 -21.130000 474.326000
121.850000 -21.122000 474.143000
122.303000 -21.106000 473.791000
122.797000 -21.098000 473.599000
123.229000 -21.079000 473.168000
123.656000 -21.059000 472.723000
124.026000 -21.030000 472.068000
124.501000 -21.018000 471.813000
124.856000 -20.987000 471.105000
125.317000 -20.973000 470.805000
125.677000 -20.943000 470.131000
126.216000 -20.943000 470.130000
126.560000 -20.911000 469.401000
127.112000 -20.913000 469.451000
127.477000 -20.885000 468.809000
128.041000 -20.889000 468.904000
128.424000 -20.864000 468.337000
128.915000 -20.856000 468.168000
129.356000 -20.840000 467.818000
129.793000 -20.824000 467.457000
130.234000 -20.809000 467.114000
130.694000 -20.797000 466.839000
131.143000 -20.783000 466.530000
131.597000 -20.770000 466.241000
132.057000 -20.758000 465.975000
132.494000 -20.743000 465.631000
132.987000 -20.736000 465.486000
133.379000 -20.714000 464.988000
134.021000 -20.731000 465.362000
134.379000 -20.704000 464.752000
154.710000 -19.188000 430.724000
155.257000 -19.194000 430.870000
155.787000 -19.199000 430.970000
156.381000 -19.211000 431.241000
156.947000 -19.220000 431.435000
157.520000 -19.229000 431.648000
158.139000 -19.244000 431.987000
158.733000 -19.256000 432.253000
159.381000 -19.274000 432.666000
159.950000 -19.283000 432.859000
160.661000 -19.309000 433.438000
161.300000 -19.326000 433.818000
162.036000 -19.354000 434.456000
100.609000 -21.386000 492.771000
100.988000 -21.347000 491.863000
101.370000 -21.308000 490.978000
101.788000 -21.278000 490.275000
102.230000 -21.253000 489.697000
102.608000 -21.215000 488.818000
103.000000 -21.180000 488.019000
103.389000 -21.145000 487.210000
103.806000 -21.116000 486.540000
104.183000 -21.079000 485.695000
104.576000 -21.046000 484.930000
104.953000 -21.010000 484.101000
105.390000 -20.986000 483.556000
105.768000 -20.951000 482.748000
106.139000 -20.915000 481.916000
106.499000 -20.877000 481.041000
106.949000 -20.857000 480.580000
107.353000 -20.828000 479.921000
107.727000 -20.794000 479.131000
108.098000 -20.760000 478.338000
108.536000 -20.739000 477.848000
108.946000 -20.712000 477.241000
109.354000 -20.686000 476.634000
109.829000 -20.672000 476.320000
110.303000 -20.658000 476.004000
110.733000 -20.637000 475.503000
111.225000 -20.627000 475.271000
111.777000 -20.628000 475.298000
112.202000 -20.606000 474.789000
112.915000 -20.636000 475.496000
113.429000 -20.631000 475.361000
114.226000 -20.676000 476.410000
114.691000 -20.661000 476.066000
115.533000 -20.714000 477.289000
115.982000 -20.697000 476.881000
116.633000 -20.715000 477.303000
116.986000 -20.680000 476.509000
117.507000 -20.676000 476.402000
117.921000 -20.653000 475.867000
118.450000 -20.649000 475.796000
118.854000 -20.625000 475.226000
119.360000 -20.618000 475.068000
119.796000 -20.599000 474.636000
120.273000 -20.587000 474.365000
120.748000 -20.575000 474.092000
121.219000 -20.563000 473.808000
121.691000 -20.551000 473.525000
122.160000 -20.538000 473.238000
122.660000 -20.531000 473.068000
123.070000 -20.509000 472.559000
123.487000 -20.488000 472.077000
123.827000 -20.455000 471.308000
124.272000 -20.439000 470.946000
124.630000 -20.409000 470.255000
125.133000 -20.403000 470.114000
125.495000 -20.374000 469.449000
126.066000 -20.379000 469.570000
126.403000 -20.347000 468.821000
126.948000 -20.348000 468.843000
127.338000 -20.324000 468.297000
127.859000 -20.321000 468.237000
128.284000 -20.304000 467.827000
128.750000 -20.292000 467.567000
129.179000 -20.275000 467.176000
129.637000 -20.263000 466.895000
