121.218000 -20.563000 473.804000
121.688000 -20.550000 473.513000
122.151000 -20.537000 473.204000
122.651000 -20.530000 473.036000
123.066000 -20.508000 472.541000
123.484000 -20.488000 472.065000
123.822000 -20.454000 471.290000
124.264000 -20.438000 470.913000
124.620000 -20.407000 470.217000
125.133000 -20.403000 470.117000
125.492000 -20.374000 469.438000
126.060000 -20.378000 469.546000
126.400000 -20.346000 468.808000
126.941000 -20.347000 468.818000
127.334000 -20.323000 468.282000
127.847000 -20.319000 468.192000
128.270000 -20.301000 467.776000
128.742000 -20.291000 467.538000
129.177000 -20.275000 467.170000
129.636000 -20.263000 466.892000
130.063000 -20.246000 466.499000
130.543000 -20.237000 466.302000
130.972000 -20.221000 465.922000
131.415000 -20.207000 465.596000
131.901000 -20.199000 465.423000
132.299000 -20.179000 464.946000
132.840000 -20.180000 464.971000
133.260000 -20.162000 464.572000
133.955000 -20.187000 465.134000
134.328000 -20.163000 464.578000
135.305000 -20.229000 466.105000
135.668000 -20.203000 465.515000
136.711000 -20.279000 467.250000
137.105000 -20.258000 466.767000
138.035000 -20.316000 468.103000
149.519000 -18.725000 431.445000
149.928000 -18.714000 431.196000
150.417000 -18.713000 431.178000
150.834000 -18.703000 430.957000
151.355000 -18.707000 431.031000
151.777000 -18.698000 430.823000
152.306000 -18.702000 430.919000
152.753000 -18.696000 430.787000
153.284000 -18.700000 430.887000
153.738000 -18.695000 430.773000
154.264000 -18.699000 430.862000
154.747000 -18.698000 430.829000
155.307000 -18.706000 431.010000
155.825000 -18.709000 431.074000
156.422000 -18.721000 431.356000
156.997000 -18.730000 431.575000
157.552000 -18.737000 431.738000
158.169000 -18.752000 432.068000
158.748000 -18.761000 432.293000
159.403000 -18.780000 432.724000
159.961000 -18.787000 432.889000
160.636000 -18.808000 433.368000
161.247000 -18.821000 433.675000
162.031000 -18.855000 434.441000
101.099000 -20.805000 492.404000
101.520000 -20.775000 491.705000
101.937000 -20.745000 490.994000
102.339000 -20.712000 490.217000
102.722000 -20.676000 489.362000
103.136000 -20.647000 488.663000
103.537000 -20.615000 487.907000
103.942000 -20.584000 487.179000
104.306000 -20.545000 486.266000
104.696000 -20.513000 485.489000
105.101000 -20.483000 484.783000
105.508000 -20.454000 484.097000
105.875000 -20.417000 483.235000
106.257000 -20.384000 482.451000
106.656000 -20.355000 481.751000
107.081000 -20.330000 481.176000
107.433000 -20.293000 480.280000
107.821000 -20.262000 479.551000
108.215000 -20.233000 478.859000
108.627000 -20.207000 478.251000
108.997000 -20.174000 477.464000
109.372000 -20.142000 476.710000
109.811000 -20.122000 476.242000
110.262000 -20.104000 475.825000
110.690000 -20.083000 475.318000
111.149000 -20.067000 474.948000
111.736000 -20.075000 475.123000
112.206000 -20.061000 474.804000
112.937000 -20.094000 475.589000
113.479000 -20.094000 475.570000
114.257000 -20.134000 476.538000
114.737000 -20.123000 476.257000
115.452000 -20.152000 476.952000
115.836000 -20.123000 476.278000
116.404000 -20.127000 476.367000
116.750000 -20.093000 475.547000
117.317000 -20.096000 475.631000
117.734000 -20.074000 475.110000
118.228000 -20.065000 474.906000
118.642000 -20.043000 474.381000
119.119000 -20.032000 474.111000
119.585000 -20.019000 473.800000
120.075000 -20.010000 473.585000
120.539000 -19.997000 473.274000
121.012000 -19.985000 472.998000
121.475000 -19.972000 472.686000
121.929000 -19.957000 472.341000
122.380000 -19.942000 471.988000
122.744000 -19.913000 471.307000
123.191000 -19.898000 470.947000
123.593000 -19.876000 470.416000
124.040000 -19.861000 470.066000
124.406000 -19.833000 469.409000
124.959000 -19.835000 469.461000
125.301000 -19.804000 468.723000
125.865000 -19.808000 468.819000
126.223000 -19.780000 468.153000
126.747000 -19.778000 468.102000
127.158000 -19.758000 467.635000
127.637000 -19.749000 467.423000
128.056000 -19.731000 466.996000
128.546000 -19.724000 466.826000
128.942000 -19.703000 466.321000
129.452000 -19.699000 466.227000
129.870000 -19.681000 465.807000
130.324000 -19.669000 465.518000
130.785000 -19.658000 465.257000
131.202000 -19.640000 464.843000
131.708000 -19.636000 464.746000
132.126000 -19.619000 464.339000
132.739000 -19.631000 464.618000
133.187000 -19.618000 464.320000
133.988000 -19.658000 465.250000
134.370000 -19.635000 464.722000
135.458000 -19.716000 466.633000
135.781000 -19.685000 465.903000
136.809000 -19.756000 467.588000
137.169000 -19.731000 466.984000
138.140000 -19.793000 468.459000
147.852000 -18.268000 432.367000
148.275000 -18.259000 432.152000
148.696000 -18.250000 431.932000
149.122000 -18.241000 431.731000
149.578000 -18.236000 431.615000
150.000000 -18.227000 431.404000
150.489000 -18.227000 431.385000
150.909000 -18.218000 431.169000
151.425000 -18.220000 431.231000
151.830000 -18.209000 430.973000
152.372000 -18.215000 431.107000
152.819000 -18.209000 430.973000
153.357000 -18.214000 431.094000
153.795000 -18.208000 430.933000
154.336000 -18.213000 431.061000
154.806000 -18.210000 430.993000
155.382000 -18.220000 431.218000
155.881000 -18.220000 431.230000
156.464000 -18.230000 431.472000
157.031000 -18.239000 431.668000
157.586000 -18.245000 431.829000
158.198000 -18.259000 432.146000
158.742000 -18.264000 432.277000
159.395000 -18.282000 432.703000
159.958000 -18.290000 432.882000
160.652000 -18.312000 433.413000
161.242000 -18.323000 433.662000
162.005000 -18.353000 434.372000
162.616000 -18.366000 434.672000
101.225000 -20.265000 493.020000
101.660000 -20.239000 492.384000
102.054000 -20.205000 491.555000
102.448000 -20.171000 490.741000
102.835000 -20.137000 489.902000
103.262000 -20.110000 489.260000
103.655000 -20.077000 488.464000
104.044000 -20.044000 487.656000
104.414000 -20.008000 486.772000
104.840000 -19.982000 486.153000
105.231000 -19.951000 485.383000
105.613000 -19.918000 484.580000
105.982000 -19.883000 483.721000
106.390000 -19.855000 483.056000
106.797000 -19.828000 482.387000
107.179000 -19.796000 481.617000
107.545000 -19.762000 480.781000
107.936000 -19.732000 480.060000
108.335000 -19.704000 479.389000
108.715000 -19.674000 478.637000
109.081000 -19.641000 477.834000
109.455000 -19.609000 477.071000
109.884000 -19.588000 476.556000
110.293000 -19.564000 475.960000
110.687000 -19.537000 475.305000
111.137000 -19.520000 474.896000
111.707000 -19.524000 475.001000
112.261000 -19.526000 475.036000
113.032000 -19.565000 475.989000
113.523000 -19.555000 475.756000
114.268000 -19.589000 476.585000
114.740000 -19.576000 476.273000
115.311000 -19.580000 476.370000
115.691000 -19.552000 475.685000
116.221000 -19.550000 475.620000
116.615000 -19.524000 475.000000
117.165000 -19.525000 475.015000
117.555000 -19.499000 474.390000
118.051000 -19.491000 474.195000
118.484000 -19.473000 473.747000
118.985000 -19.465000 473.576000
119.424000 -19.448000 473.161000
119.943000 -19.445000 473.066000
120.393000 -19.429000 472.700000
120.845000 -19.415000 472.344000
121.333000 -19.406000 472.134000
121.789000 -19.392000 471.799000
122.248000 -19.379000 471.478000
122.595000 -19.349000 470.735000
122.986000 -19.325000 470.162000
123.375000 -19.302000 469.587000
123.877000 -19.296000 469.448000
124.234000 -19.267000 468.758000
124.821000 -19.275000 468.942000
125.171000 -19.246000 468.236000
125.703000 -19.245000 468.218000
126.092000 -19.223000 467.667000
126.592000 -19.217000 467.530000
126.979000 -19.194000 466.977000
127.494000 -19.191000 466.899000
127.878000 -19.168000 466.347000
128.394000 -19.165000 466.274000
128.804000 -19.147000 465.821000
129.290000 -19.140000 465.645000
129.722000 -19.124000 465.278000
130.144000 -19.108000 464.875000
130.645000 -19.103000 464.758000
131.070000 -19.087000 464.374000
131.568000 -19.082000 464.251000
132.037000 -19.073000 464.026000
132.670000 -19.087000 464.376000
133.145000 -19.079000 464.173000
134.066000 -19.134000 465.519000
134.436000 -19.111000 464.949000
135.563000 -19.195000 466.994000
135.844000 -19.159000 466.119000
136.863000 -19.227000 467.770000
137.200000 -19.199000 467.090000
138.180000 -19.261000 468.595000
145.955000 -17.843000 434.107000
146.326000 -17.828000 433.728000
146.727000 -17.816000 433.443000
147.115000 -17.803000 433.120000
147.525000 -17.792000 432.862000
147.928000 -17.781000 432.589000
148.356000 -17.772000 432.386000
148.767000 -17.762000 432.140000
149.196000 -17.754000 431.944000
149.641000 -17.748000 431.798000
150.060000 -17.739000 431.576000
150.546000 -17.738000 431.548000
150.962000 -17.729000 431.321000
151.468000 -17.730000 431.353000
151.886000 -17.721000 431.133000
152.435000 -17.727000 431.285000
152.875000 -17.721000 431.129000
153.420000 -17.727000 431.270000
153.838000 -17.718000 431.053000
154.405000 -17.726000 431.255000
154.870000 -17.723000 431.171000
155.434000 -17.730000 431.363000
155.930000 -17.730000 431.365000
156.509000 -17.740000 431.594000
157.080000 -17.748000 431.802000
157.621000 -17.754000 431.926000
158.245000 -17.768000 432.276000
158.773000 -17.771000 432.362000
159.427000 -17.789000 432.789000
159.968000 -17.794000 432.909000
160.673000 -17.817000 433.469000
161.244000 -17.825000 433.666000
161.983000 -17.852000 434.312000
162.567000 -17.861000 434.541000
101.373000 -19.727000 493.739000
101.777000 -19.696000 492.950000
102.166000 -19.662000 492.099000
102.571000 -19.631000 491.330000
102.979000 -19.601000 490.585000
103.395000 -19.574000 489.890000
103.767000 -19.538000 488.988000
104.156000 -19.505000 488.183000
104.563000 -19.477000 487.467000
104.980000 -19.450000 486.805000
105.352000 -19.416000 485.941000
105.734000 -19.383000 485.132000
106.118000 -19.352000 484.346000
106.537000 -19.327000 483.724000
106.914000 -19.295000 482.914000
107.295000 -19.264000 482.138000
107.676000 -19.233000 481.364000
108.077000 -19.206000 480.689000
108.458000 -19.176000 479.935000
108.838000 -19.146000 479.178000
109.212000 -19.115000 478.406000
109.622000 -19.091000 477.801000
110.019000 -19.064000 477.145000
110.388000 -19.033000 476.372000
110.776000 -19.006000 475.688000
111.206000 -18.986000 475.191000
111.720000 -18.981000 475.058000
112.268000 -18.981000 475.067000
113.076000 -19.025000 476.173000
113.555000 -19.014000 475.890000
114.130000 -19.019000 476.009000
114.530000 -18.995000 475.401000
115.099000 -18.998000 475.494000
115.462000 -18.968000 474.744000
116.026000 -18.971000 474.820000
116.437000 -18.950000 474.273000
116.937000 -18.942000 474.092000
117.339000 -18.919000 473.517000
117.860000 -18.916000 473.426000
118.291000 -18.898000 472.978000
118.804000 -18.893000 472.856000
119.249000 -18.877000 472.469000
119.753000 -18.871000 472.316000
120.213000 -18.858000 471.994000
120.641000 -18.841000 471.549000
121.067000 -18.823000 471.098000
121.453000 -18.799000 470.497000
121.869000 -18.780000 470.018000
122.289000 -18.761000 469.557000
122.782000 -18.754000 469.381000
123.138000 -18.726000 468.686000
123.697000 -18.729000 468.764000
124.053000 -18.702000 468.078000
124.598000 -18.703000 468.106000
124.967000 -18.678000 467.475000
125.513000 -18.679000 467.509000
125.884000 -18.655000 466.893000
126.399000 -18.652000 466.815000
126.768000 -18.627000 466.201000
127.308000 -18.628000 466.221000
127.696000 -18.606000 465.683000
128.192000 -18.601000 465.541000
128.626000 -18.586000 465.178000
129.068000 -18.573000 464.846000
129.516000 -18.561000 464.540000
129.965000 -18.549000 464.238000
130.428000 -18.539000 463.988000
130.936000 -18.535000 463.899000
131.473000 -18.536000 463.916000
131.993000 -18.534000 463.870000
132.732000 -18.563000 464.591000
133.203000 -18.554000 464.376000
134.179000 -18.616000 465.914000
134.516000 -18.588000 465.226000
135.627000 -18.668000 467.215000
135.904000 -18.632000 466.324000
136.933000 -18.699000 468.011000
137.286000 -18.674000 467.383000
138.250000 -18.732000 468.833000
145.650000 -17.368000 434.683000
146.045000 -17.355000 434.375000
146.406000 -17.339000 433.965000
146.800000 -17.327000 433.658000
147.186000 -17.314000 433.328000
147.603000 -17.304000 433.092000
148.012000 -17.294000 432.834000
148.432000 -17.285000 432.609000
148.838000 -17.274000 432.346000
149.281000 -17.268000 432.190000
149.718000 -17.261000 432.018000
150.137000 -17.252000 431.797000
150.616000 -17.251000 431.750000
151.032000 -17.241000 431.523000
151.531000 -17.242000 431.531000
151.930000 -17.231000 431.257000
152.480000 -17.237000 431.414000
152.920000 -17.231000 431.258000
153.464000 -17.236000 431.393000
153.884000 -17.228000 431.182000
154.446000 -17.235000 431.368000
154.911000 -17.232000 431.286000
155.474000 -17.240000 431.474000
155.982000 -17.241000 431.508000
156.553000 -17.249000 431.715000
157.120000 -17.257000 431.912000
157.638000 -17.259000 431.973000
158.259000 -17.273000 432.314000
158.796000 -17.278000 432.425000
159.441000 -17.294000 432.827000
159.966000 -17.297000 432.903000
160.664000 -17.318000 433.445000
161.270000 -17.330000 433.737000
161.980000 -17.353000 434.304000
162.584000 -17.364000 434.587000
163.305000 -17.387000 435.176000
101.889000 -19.151000 493.492000
102.269000 -19.116000 492.593000
102.706000 -19.092000 491.978000
103.111000 -19.062000 491.213000
103.502000 -19.031000 490.395000
103.878000 -18.996000 489.515000
104.293000 -18.970000 488.825000
104.687000 -18.939000 488.044000
105.084000 -18.910000 487.286000
105.453000 -18.876000 486.407000
105.848000 -18.847000 485.659000
106.252000 -18.820000 484.957000
106.648000 -18.791000 484.228000
107.019000 -18.759000 483.391000
107.409000 -18.730000 482.646000
107.805000 -18.703000 481.941000
108.198000 -18.675000 481.229000
108.572000 -18.644000 480.438000
108.947000 -18.614000 479.662000
109.356000 -18.590000 479.038000
109.764000 -18.566000 478.418000
110.125000 -18.534000 477.600000
110.488000 -18.503000 476.802000
110.881000 -18.477000 476.139000
111.288000 -18.454000 475.541000
111.795000 -18.448000 475.375000
112.342000 -18.448000 475.381000
113.027000 -18.471000 475.967000
113.449000 -18.450000 475.445000
113.990000 -18.450000 475.425000
114.365000 -18.422000 474.712000
114.943000 -18.427000 474.849000
115.306000 -18.398000 474.099000
115.878000 -18.403000 474.214000
116.266000 -18.378000 473.577000
116.766000 -18.371000 473.398000
117.184000 -18.351000 472.893000
117.702000 -18.347000 472.791000
118.136000 -18.331000 472.355000
118.649000 -18.326000 472.239000
119.099000 -18.312000 471.874000
119.577000 -18.302000 471.621000
120.035000 -18.289000 471.294000
120.464000 -18.272000 470.857000
120.868000 -18.252000 470.323000
121.249000 -18.228000 469.707000
121.669000 -18.210000 469.247000
122.080000 -18.191000 468.755000
122.646000 -18.195000 468.862000
123.002000 -18.168000 468.168000
123.529000 -18.166000 468.127000
123.932000 -18.147000 467.622000
124.440000 -18.143000 467.512000
124.824000 -18.120000 466.939000
125.369000 -18.122000 466.974000
125.704000 -18.093000 466.225000
126.246000 -18.094000 466.251000
126.630000 -18.072000 465.693000
127.130000 -18.067000 465.569000
127.563000 -18.053000 465.198000
128.023000 -18.042000 464.928000
128.455000 -18.028000 464.561000
128.910000 -18.017000 464.275000
129.346000 -18.004000 463.929000
129.829000 -17.997000 463.749000
130.272000 -17.984000 463.432000
130.807000 -17.985000 463.442000
131.406000 -17.994000 463.677000
131.962000 -17.997000 463.760000
132.835000 -18.043000 464.953000
133.252000 -18.028000 464.546000
134.273000 -18.093000 466.238000
134.611000 -18.067000 465.557000
135.666000 -18.136000 467.349000
135.933000 -18.100000 466.425000
137.031000 -18.175000 468.345000
137.363000 -18.148000 467.647000
138.305000 -18.201000 469.018000
145.732000 -16.878000 434.927000
146.120000 -16.865000 434.598000
146.478000 -16.849000 434.178000
146.876000 -16.837000 433.881000
147.260000 -16.824000 433.545000
147.665000 -16.814000 433.274000
148.080000 -16.805000 433.034000
148.499000 -16.796000 432.806000
148.909000 -16.786000 432.552000
149.350000 -16.780000 432.391000
149.780000 -16.772000 432.199000
150.205000 -16.764000 431.994000
150.674000 -16.761000 431.916000
151.104000 -16.754000 431.727000
151.600000 -16.754000 431.729000
152.004000 -16.744000 431.469000
152.533000 -16.747000 431.562000
152.978000 -16.742000 431.420000
153.519000 -16.747000 431.548000
153.957000 -16.741000 431.387000
154.499000 -16.746000 431.519000
154.973000 -16.743000 431.458000
155.530000 -16.750000 431.630000
156.044000 -16.752000 431.679000
156.597000 -16.758000 431.837000
157.165000 -16.766000 432.037000
157.678000 -16.768000 432.081000
158.291000 -16.780000 432.403000
158.814000 -16.783000 432.472000
159.465000 -16.799000 432.894000
159.991000 -16.802000 432.970000
160.664000 -16.821000 433.444000
161.252000 -16.830000 433.688000
161.967000 -16.853000 434.270000
162.566000 -16.863000 434.539000
163.295000 -16.887000 435.150000
102.011000 -18.606000 494.084000
102.421000 -18.578000 493.327000
102.839000 -18.551000 492.615000
103.215000 -18.517000 491.710000
103.610000 -18.487000 490.909000
104.009000 -18.457000 490.129000
104.439000 -18.434000 489.510000
104.816000 -18.402000 488.645000
105.201000 -18.371000 487.829000
105.573000 -18.338000 486.961000
105.991000 -18.314000 486.311000
106.380000 -18.285000 485.540000
106.771000 -18.256000 484.782000
107.150000 -18.226000 483.981000
107.557000 -18.201000 483.312000
107.945000 -18.173000 482.566000
108.323000 -18.143000 481.784000
108.696000 -18.113000 480.988000
109.096000 -18.088000 480.317000
109.497000 -18.063000 479.654000
109.871000 -18.034000 478.886000
110.243000 -18.005000 478.114000
110.620000 -17.977000 477.373000
111.022000 -17.953000 476.745000
111.398000 -17.926000 476.011000
111.829000 -17.907000 475.520000
112.296000 -17.895000 475.186000
112.872000 -17.900000 475.315000
113.234000 -17.871000 474.545000
113.805000 -17.875000 474.651000
114.171000 -17.847000 473.909000
114.740000 -17.851000 474.012000
115.121000 -17.825000 473.340000
115.663000 -17.825000 473.334000
116.041000 -17.800000 472.659000
116.577000 -17.799000 472.632000
117.005000 -17.781000 472.171000
117.499000 -17.774000 471.976000
117.933000 -17.758000 471.546000
118.450000 -17.754000 471.447000
118.899000 -17.740000 471.082000
119.354000 -17.727000 470.743000
119.766000 -17.708000 470.238000
120.192000 -17.692000 469.791000
120.603000 -17.673000 469.294000
120.995000 -17.651000 468.725000
121.479000 -17.644000 468.514000
121.904000 -17.627000 468.081000
122.417000 -17.624000 467.989000
122.830000 -17.606000 467.512000
123.339000 -17.602000 467.409000
123.725000 -17.580000 466.840000
124.273000 -17.582000 466.884000
124.632000 -17.557000 466.223000
125.159000 -17.556000 466.191000
125.518000 -17.531000 465.536000
126.048000 -17.531000 465.519000
126.453000 -17.513000 465.043000
126.936000 -17.506000 464.855000
127.368000 -17.492000 464.486000
127.833000 -17.483000 464.239000
128.224000 -17.463000 463.723000
128.736000 -17.460000 463.651000
129.159000 -17.446000 463.257000
129.669000 -17.443000 463.179000
130.202000 -17.443000 463.182000
130.781000 -17.449000 463.351000
131.458000 -17.468000 463.863000
131.988000 -17.468000 463.852000
132.948000 -17.524000 465.350000
133.344000 -17.506000 464.866000
134.346000 -17.567000 466.491000
134.685000 -17.542000 465.811000
135.754000 -17.611000 467.652000
136.011000 -17.575000 466.691000
137.110000 -17.647000 468.616000
137.419000 -17.618000 467.837000
145.807000 -16.387000 435.152000
146.207000 -16.376000 434.855000
146.565000 -16.360000 434.438000
146.961000 -16.349000 434.135000
147.339000 -16.335000 433.779000
147.737000 -16.324000 433.484000
148.149000 -16.315000 433.233000
148.556000 -16.305000 432.971000
148.983000 -16.297000 432.767000
149.405000 -16.289000 432.551000
149.846000 -16.283000 432.388000
150.286000 -16.277000 432.228000
150.755000 -16.274000 432.147000
151.180000 -16.266000 431.944000
151.664000 -16.265000 431.912000
152.084000 -16.257000 431.696000
152.605000 -16.260000 431.765000
153.049000 -16.254000 431.621000
153.582000 -16.258000 431.725000
154.028000 -16.253000 431.587000
154.562000 -16.257000 431.692000
155.061000 -16.257000 431.704000
155.594000 -16.261000 431.807000
156.111000 -16.263000 431.866000
156.635000 -16.266000 431.942000
157.194000 -16.273000 432.116000
157.707000 -16.275000 432.161000
158.331000 -16.288000 432.510000
158.855000 -16.291000 432.586000
159.479000 -16.303000 432.929000
160.012000 -16.307000 433.029000
160.663000 -16.323000 433.444000
161.277000 -16.334000 433.754000
161.981000 -16.355000 434.306000
162.584000 -16.366000 434.587000
163.277000 -16.385000 435.104000
102.152000 -18.064000 494.767000
102.559000 -18.036000 493.988000
102.949000 -18.005000 493.143000
103.325000 -17.972000 492.235000
103.733000 -17.944000 491.490000
104.146000 -17.918000 490.778000
104.558000 -17.892000 490.064000
104.928000 -17.860000 489.166000
105.319000 -17.831000 488.374000
105.718000 -17.803000 487.630000
106.121000 -17.777000 486.909000
106.492000 -17.746000 486.052000
106.881000 -17.718000 485.282000
107.279000 -17.691000 484.563000
107.680000 -17.666000 483.867000
108.055000 -17.637000 483.059000
108.431000 -17.608000 482.265000
108.815000 -17.580000 481.514000
109.214000 -17.555000 480.837000
109.603000 -17.529000 480.120000
109.978000 -17.501000 479.351000
110.365000 -17.475000 478.644000
110.771000 -17.453000 478.025000
111.157000 -17.427000 477.322000
111.501000 -17.395000 476.450000
111.855000 -17.365000 475.633000
112.240000 -17.341000 474.951000
112.726000 -17.331000 474.697000
113.093000 -17.304000 473.954000
113.662000 -17.308000 474.057000
114.025000 -17.280000 473.304000
114.549000 -17.277000 473.221000
114.962000 -17.258000 472.688000
115.493000 -17.256000 472.639000
115.892000 -17.235000 472.053000
116.437000 -17.235000 472.063000
116.839000 -17.214000 471.499000
117.336000 -17.208000 471.323000
117.786000 -17.195000 470.956000
118.296000 -17.190000 470.833000
118.753000 -17.178000 470.504000
119.201000 -17.165000 470.137000
119.605000 -17.145000 469.606000
119.984000 -17.123000 468.980000
120.407000 -17.106000 468.529000
120.807000 -17.087000 467.996000
121.307000 -17.081000 467.852000
121.752000 -17.068000 467.499000
122.256000 -17.064000 467.373000
122.684000 -17.049000 466.956000
123.200000 -17.046000 466.882000
123.581000 -17.025000 466.298000
124.138000 -17.028000 466.379000
124.477000 -17.001000 465.640000
124.993000 -16.998000 465.572000
125.390000 -16.979000 465.062000
125.889000 -16.975000 464.932000
126.290000 -16.957000 464.442000
126.806000 -16.955000 464.381000
127.187000 -16.934000 463.827000
127.700000 -16.932000 463.756000
128.106000 -16.915000 463.296000
128.606000 -16.911000 463.181000
129.046000 -16.899000 462.851000
129.556000 -16.896000 462.774000
130.163000 -16.906000 463.045000
130.749000 -16.913000 463.236000
131.532000 -16.945000 464.124000
132.049000 -16.943000 464.068000
133.039000 -17.002000 465.666000
133.412000 -16.981000 465.103000
134.401000 -17.039000 466.682000
134.730000 -17.013000 465.968000
135.837000 -17.085000 467.939000
136.088000 -17.049000 466.955000
137.162000 -17.116000 468.794000
137.455000 -17.085000 467.957000
145.873000 -15.895000 435.349000
146.268000 -15.883000 435.039000
146.636000 -15.869000 434.647000
147.026000 -15.857000 434.325000
147.403000 -15.844000 433.965000
147.806000 -15.834000 433.686000
148.221000 -15.825000 433.445000
148.625000 -15.815000 433.171000
149.056000 -15.808000 432.978000
149.472000 -15.800000 432.742000
149.909000 -15.793000 432.571000
150.340000 -15.786000 432.383000
150.798000 -15.782000 432.270000
151.235000 -15.776000 432.102000
151.718000 -15.775000 432.065000
152.158000 -15.769000 431.904000
152.671000 -15.771000 431.954000
153.117000 -15.766000 431.813000
153.633000 -15.768000 431.870000
154.092000 -15.764000 431.766000
154.615000 -15.767000 431.842000
155.128000 -15.768000 431.888000
155.648000 -15.771000 431.957000
156.168000 -15.773000 432.022000
156.670000 -15.774000 432.039000
157.238000 -15.781000 432.237000
157.749000 -15.782000 432.275000
158.375000 -15.795000 432.630000
158.894000 -15.798000 432.692000
159.506000 -15.809000 433.004000
160.034000 -15.812000 433.088000
160.688000 -15.828000 433.511000
161.282000 -15.837000 433.768000
161.975000 -15.856000 434.291000
162.588000 -15.867000 434.597000
163.249000 -15.883000 435.028000
163.911000 -15.899000 435.460000
164.641000 -15.921000 436.070000
102.295000 -17.520000 495.460000
102.676000 -17.488000 494.554000
103.066000 -17.458000 493.703000
103.456000 -17.428000 492.860000
103.894000 -17.407000 492.251000
104.282000 -17.377000 491.418000
104.672000 -17.349000 490.603000
105.045000 -17.317000 489.712000
105.460000 -17.293000 489.029000
105.860000 -17.267000 488.287000
106.250000 -17.239000 487.502000
106.622000 -17.209000 486.644000
107.024000 -17.184000 485.933000
107.413000 -17.157000 485.169000
107.801000 -17.130000 484.408000
108.176000 -17.101000 483.598000
108.570000 -17.076000 482.882000
108.962000 -17.050000 482.163000
109.353000 -17.025000 481.446000
109.738000 -16.999000 480.710000
110.131000 -16.974000 480.018000
110.549000 -16.954000 479.443000
110.910000 -16.925000 478.624000
111.237000 -16.891000 477.666000
111.549000 -16.855000 476.655000
111.873000 -16.822000 475.707000
112.209000 -16.791000 474.820000
112.619000 -16.770000 474.248000
112.988000 -16.744000 473.511000
113.485000 -16.737000 473.318000
113.845000 -16.710000 472.556000
114.379000 -16.709000 472.520000
114.756000 -16.685000 471.841000
115.318000 -16.688000 471.921000
115.733000 -16.670000 471.407000
116.253000 -16.667000 471.319000
116.651000 -16.646000 470.741000
117.170000 -16.643000 470.655000
117.617000 -16.630000 470.281000
118.098000 -16.622000 470.046000
118.509000 -16.604000 469.538000
118.925000 -16.587000 469.051000
119.342000 -16.570000 468.575000
119.758000 -16.553000 468.096000
120.211000 -16.541000 467.767000
120.653000 -16.528000 467.399000
121.151000 -16.523000 467.250000
121.549000 -16.504000 466.716000
122.083000 -16.504000 466.708000
122.463000 -16.483000 466.116000
123.019000 -16.486000 466.196000
123.399000 -16.465000 465.610000
123.915000 -16.462000 465.538000
124.273000 -16.439000 464.879000
124.811000 -16.440000 464.895000
125.186000 -16.419000 464.307000
125.717000 -16.418000 464.296000
126.095000 -16.398000 463.728000
126.622000 -16.398000 463.708000
126.996000 -16.377000 463.128000
127.514000 -16.375000 463.080000
127.969000 -16.366000 462.801000
128.471000 -16.362000 462.696000
129.005000 -16.362000 462.707000
129.546000 -16.363000 462.741000
130.220000 -16.381000 463.248000
130.823000 -16.390000 463.500000
131.625000 -16.424000 464.452000
132.142000 -16.422000 464.394000
133.110000 -16.476000 465.915000
133.490000 -16.456000 465.373000
134.482000 -16.513000 466.964000
134.772000 -16.483000 466.111000
135.895000 -16.554000 468.138000
136.122000 -16.517000 467.073000
137.211000 -16.583000 468.962000
137.594000 -16.565000 468.430000
145.942000 -15.402000 435.557000
146.332000 -15.391000 435.229000
146.695000 -15.376000 434.822000
147.092000 -15.365000 434.520000
147.486000 -15.355000 434.212000
147.892000 -15.345000 433.940000
148.299000 -15.335000 433.673000
148.696000 -15.325000 433.379000
149.136000 -15.319000 433.211000
149.546000 -15.310000 432.959000
149.984000 -15.304000 432.786000
150.408000 -15.297000 432.576000
150.863000 -15.293000 432.457000
151.312000 -15.288000 432.321000
151.783000 -15.285000 432.250000
152.233000 -15.280000 432.117000
152.726000 -15.280000 432.110000
153.172000 -15.275000 431.967000
153.668000 -15.275000 431.966000
154.146000 -15.273000 431.916000
154.655000 -15.275000 431.953000
155.172000 -15.277000 432.010000
155.680000 -15.278000 432.045000
156.219000 -15.282000 432.163000
156.702000 -15.281000 432.128000
157.263000 -15.287000 432.306000
157.765000 -15.288000 432.322000
158.389000 -15.300000 432.670000
158.920000 -15.303000 432.762000
159.539000 -15.315000 433.093000
160.054000 -15.317000 433.141000
160.690000 -15.330000 433.514000
161.271000 -15.338000 433.738000
161.964000 -15.356000 434.261000
162.591000 -15.368000 434.606000
163.234000 -15.382000 434.989000
163.894000 -15.397000 435.416000
164.604000 -15.417000 435.970000
102.783000 -16.938000 495.068000
103.184000 -16.911000 494.267000
103.600000 -16.886000 493.546000
104.020000 -16.862000 492.847000
104.396000 -16.832000 491.956000
104.788000 -16.804000 491.144000
105.182000 -16.777000 490.354000
105.602000 -16.754000 489.688000
105.974000 -16.724000 488.812000
106.362000 -16.697000 488.015000
106.753000 -16.670000 487.243000
107.157000 -16.646000 486.537000
107.535000 -16.618000 485.720000
107.913000 -16.591000 484.914000
108.294000 -16.564000 484.125000
108.696000 -16.540000 483.442000
109.092000 -16.516000 482.739000
109.469000 -16.490000 481.958000
109.839000 -16.462000 481.156000
110.253000 -16.441000 480.550000
110.653000 -16.419000 479.894000
110.978000 -16.386000 478.917000
111.302000 -16.352000 477.948000
111.609000 -16.317000 476.912000
111.945000 -16.286000 476.013000
112.285000 -16.256000 475.138000
112.647000 -16.230000 474.367000
113.003000 -16.203000 473.576000
113.433000 -16.187000 473.102000
113.760000 -16.156000 472.205000
114.274000 -16.152000 472.087000
114.611000 -16.123000 471.243000
115.172000 -16.126000 471.323000
115.568000 -16.106000 470.734000
116.068000 -16.100000 470.571000
116.512000 -16.087000 470.181000
117.032000 -16.084000 470.099000
117.484000 -16.072000 469.749000
117.958000 -16.063000 469.488000
118.349000 -16.043000 468.902000
118.745000 -16.024000 468.339000
119.115000 -16.001000 467.680000
119.563000 -15.989000 467.333000
120.061000 -15.984000 467.183000
120.514000 -15.973000 466.859000
121.026000 -15.970000 466.768000
121.421000 -15.951000 466.227000
121.951000 -15.951000 466.206000
122.327000 -15.930000 465.601000
122.864000 -15.930000 465.608000
123.244000 -15.910000 465.026000
123.742000 -15.906000 464.889000
124.117000 -15.885000 464.294000
124.673000 -15.888000 464.382000
125.020000 -15.864000 463.688000
125.578000 -15.868000 463.783000
125.942000 -15.846000 463.163000
126.429000 -15.841000 462.999000
126.855000 -15.828000 462.614000
127.338000 -15.822000 462.441000
127.820000 -15.816000 462.263000
128.372000 -15.818000 462.337000
128.974000 -15.827000 462.594000
129.574000 -15.835000 462.840000
130.292000 -15.858000 463.504000
130.908000 -15.868000 463.800000
131.764000 -15.907000 464.941000
132.241000 -15.900000 464.741000
133.158000 -15.946000 466.082000
133.524000 -15.926000 465.495000
134.584000 -15.989000 467.319000
134.857000 -15.957000 466.407000
135.927000 -16.020000 468.249000
136.152000 -15.984000 467.175000
137.302000 -16.056000 469.272000
137.731000 -16.043000 468.897000
138.340000 -16.051000 469.136000
138.697000 -16.030000 468.524000
146.017000 -14.910000 435.778000
146.410000 -14.899000 435.460000
146.773000 -14.885000 435.054000
147.174000 -14.875000 434.761000
147.558000 -14.863000 434.423000
147.961000 -14.854000 434.142000
148.362000 -14.844000 433.858000
148.776000 -14.835000 433.613000
149.210000 -14.829000 433.426000
149.613000 -14.820000 433.151000
150.064000 -14.815000 433.018000
150.490000 -14.808000 432.814000
150.940000 -14.803000 432.678000
151.380000 -14.798000 432.516000
151.858000 -14.796000 432.462000
152.314000 -14.792000 432.347000
152.787000 -14.790000 432.280000
153.237000 -14.785000 432.149000
153.720000 -14.784000 432.113000
154.207000 -14.783000 432.089000
154.706000 -14.784000 432.097000
155.238000 -14.787000 432.196000
155.716000 -14.785000 432.143000
156.263000 -14.790000 432.284000
156.746000 -14.789000 432.248000
157.321000 -14.796000 432.463000
157.823000 -14.797000 432.480000
158.439000 -14.808000 432.806000
158.953000 -14.809000 432.851000
159.578000 -14.821000 433.199000
160.079000 -14.822000 433.210000
160.744000 -14.837000 433.662000
161.299000 -14.842000 433.815000
161.968000 -14.858000 434.272000
162.582000 -14.869000 434.580000
163.226000 -14.882000 434.967000
163.877000 -14.896000 435.369000
164.594000 -14.915000 435.946000
102.906000 -16.389000 495.659000
103.339000 -16.368000 495.011000
103.739000 -16.341000 494.209000
104.135000 -16.314000 493.396000
104.514000 -16.285000 492.509000
104.935000 -16.263000 491.833000
105.342000 -16.238000 491.099000
105.732000 -16.212000 490.291000
106.102000 -16.182000 489.399000
106.498000 -16.157000 488.638000
106.889000 -16.131000 487.863000
107.284000 -16.107000 487.115000
107.660000 -16.079000 486.287000
108.053000 -16.055000 485.541000
108.446000 -16.030000 484.805000
108.842000 -16.007000 484.091000
109.217000 -15.980000 483.293000
109.592000 -15.954000 482.501000
109.985000 -15.931000 481.795000
110.385000 -15.909000 481.127000
110.769000 -15.884000 480.396000
111.141000 -15.859000 479.618000
111.492000 -15.830000 478.763000
111.820000 -15.799000 477.817000
112.153000 -15.769000 476.898000
112.471000 -15.737000 475.925000
112.813000 -15.708000 475.063000
113.130000 -15.676000 474.106000
113.529000 -15.656000 473.501000
113.841000 -15.625000 472.540000
114.289000 -15.612000 472.148000
114.611000 -15.582000 471.244000
115.073000 -15.571000 470.921000
115.437000 -15.547000 470.198000
115.901000 -15.537000 469.891000
116.316000 -15.521000 469.390000
116.802000 -15.514000 469.178000
117.229000 -15.499000 468.731000
117.673000 -15.486000 468.355000
118.082000 -15.469000 467.845000
118.526000 -15.457000 467.477000
118.967000 -15.445000 467.100000
119.429000 -15.435000 466.810000
119.912000 -15.428000 466.602000
120.332000 -15.414000 466.154000
120.853000 -15.412000 466.099000
121.257000 -15.395000 465.596000
121.752000 -15.390000 465.444000
122.163000 -15.375000 464.975000
122.657000 -15.370000 464.822000
123.033000 -15.350000 464.227000
123.585000 -15.352000 464.301000
123.928000 -15.329000 463.589000
124.477000 -15.331000 463.651000
124.853000 -15.312000 463.071000
125.369000 -15.310000 463.013000
125.762000 -15.293000 462.503000
126.236000 -15.286000 462.295000
126.692000 -15.277000 462.020000
127.239000 -15.279000 462.081000
127.761000 -15.278000 462.050000
128.384000 -15.289000 462.383000
129.005000 -15.300000 462.705000
129.648000 -15.313000 463.103000
130.355000 -15.333000 463.727000
130.969000 -15.343000 464.017000
131.841000 -15.382000 465.212000
132.276000 -15.371000 464.864000
133.212000 -15.417000 466.272000
133.596000 -15.400000 465.744000
134.641000 -15.459000 467.515000
134.892000 -15.426000 466.527000
136.012000 -15.492000 468.539000
136.289000 -15.463000 467.646000
137.209000 -15.506000 468.953000
137.556000 -15.485000 468.302000
138.113000 -15.487000 468.367000
138.497000 -15.470000 467.847000
139.005000 -15.466000 467.750000
146.502000 -14.408000 435.734000
146.863000 -14.394000 435.319000
147.257000 -14.384000 435.007000
147.631000 -14.371000 434.639000
148.034000 -14.362000 434.356000
148.438000 -14.353000 434.079000
148.851000 -14.345000 433.829000
149.281000 -14.338000 433.632000
149.674000 -14.328000 433.329000
150.150000 -14.326000 433.267000
150.570000 -14.319000 433.043000
151.029000 -14.315000 432.933000
151.454000 -14.308000 432.728000
151.937000 -14.307000 432.687000
152.383000 -14.302000 432.542000
152.845000 -14.299000 432.446000
153.308000 -14.296000 432.352000
153.788000 -14.294000 432.305000
154.290000 -14.295000 432.321000
154.765000 -14.293000 432.259000
155.319000 -14.298000 432.421000
155.768000 -14.294000 432.288000
156.313000 -14.298000 432.425000
156.794000 -14.297000 432.380000
157.378000 -14.305000 432.620000
157.893000 -14.306000 432.671000
158.491000 -14.316000 432.947000
158.996000 -14.316000 432.969000
159.588000 -14.325000 433.227000
160.130000 -14.329000 433.346000
160.779000 -14.342000 433.757000
161.329000 -14.347000 433.896000
161.991000 -14.361000 434.334000
162.575000 -14.369000 434.563000
163.221000 -14.382000 434.954000
163.853000 -14.394000 435.306000
164.514000 -14.408000 435.734000
165.208000 -14.425000 436.244000
103.043000 -15.841000 496.320000
103.463000 -15.818000 495.603000
103.849000 -15.790000 494.733000
104.245000 -15.764000 493.914000
104.638000 -15.738000 493.095000
105.071000 -15.718000 492.469000
105.453000 -15.691000 491.615000
105.847000 -15.666000 490.824000
106.236000 -15.640000 490.019000
106.636000 -15.616000 489.274000
107.018000 -15.590000 488.451000
107.401000 -15.564000 487.644000
107.779000 -15.538000 486.824000
108.193000 -15.517000 486.171000
108.587000 -15.494000 485.435000
108.962000 -15.468000 484.626000
109.331000 -15.441000 483.795000
109.716000 -15.417000 483.045000
110.117000 -15.396000 482.372000
110.500000 -15.372000 481.627000
110.884000 -15.349000 480.893000
111.255000 -15.324000 480.110000
111.632000 -15.300000 479.362000
111.974000 -15.272000 478.475000
112.287000 -15.239000 477.467000
112.600000 -15.208000 476.474000
112.924000 -15.178000 475.532000
113.258000 -15.149000 474.643000
113.623000 -15.125000 473.892000
113.972000 -15.099000 473.083000
114.353000 -15.078000 472.413000
114.699000 -15.052000 471.605000
115.109000 -15.035000 471.069000
115.451000 -15.009000 470.255000
115.867000 -14.993000 469.754000
116.204000 -14.967000 468.936000
116.637000 -14.954000 468.513000
117.003000 -14.932000 467.828000
117.465000 -14.922000 467.528000
117.895000 -14.909000 467.104000
118.346000 -14.898000 466.766000
118.819000 -14.890000 466.518000
119.265000 -14.879000 466.168000
119.765000 -14.874000 466.030000
120.204000 -14.862000 465.659000
120.692000 -14.857000 465.479000
121.111000 -14.843000 465.035000
121.607000 -14.838000 464.891000
122.003000 -14.821000 464.366000
122.502000 -14.817000 464.236000
122.877000 -14.798000 463.640000
123.455000 -14.803000 463.810000
123.784000 -14.779000 463.049000
124.316000 -14.779000 463.052000
124.714000 -14.763000 462.557000
125.204000 -14.759000 462.404000
125.611000 -14.744000 461.948000
126.141000 -14.744000 461.944000
126.543000 -14.729000 461.476000
127.186000 -14.742000 461.888000
127.727000 -14.743000 461.925000
128.418000 -14.762000 462.506000
129.082000 -14.777000 462.980000
129.754000 -14.793000 463.483000
130.479000 -14.815000 464.167000
131.032000 -14.817000 464.239000
131.914000 -14.856000 465.471000
132.360000 -14.847000 465.161000
133.324000 -14.895000 466.664000
133.692000 -14.876000 466.079000
134.692000 -14.927000 467.694000
134.923000 -14.894000 466.636000
136.113000 -14.966000 468.890000
136.442000 -14.943000 468.170000
137.057000 -14.951000 468.433000
137.405000 -14.930000 467.789000
137.925000 -14.929000 467.730000
138.316000 -14.913000 467.235000
138.843000 -14.912000 467.205000
139.257000 -14.899000 466.794000
146.566000 -13.913000 435.924000
146.933000 -13.901000 435.528000
147.327000 -13.891000 435.215000
147.705000 -13.879000 434.856000
148.102000 -13.870000 434.556000
148.508000 -13.861000 434.285000
148.928000 -13.854000 434.053000
149.351000 -13.847000 433.835000
149.743000 -13.837000 433.529000
150.219000 -13.835000 433.466000
150.628000 -13.827000 433.209000
151.100000 -13.824000 433.136000
151.518000 -13.817000 432.911000
152.007000 -13.816000 432.886000
152.441000 -13.811000 432.709000
152.910000 -13.808000 432.630000
153.370000 -13.805000 432.526000
153.857000 -13.804000 432.500000
154.358000 -13.805000 432.512000
154.813000 -13.801000 432.394000
155.363000 -13.806000 432.545000
155.822000 -13.802000 432.438000
156.362000 -13.806000 432.559000
156.841000 -13.804000 432.511000
157.423000 -13.812000 432.745000
157.941000 -13.814000 432.802000
158.535000 -13.822000 433.068000
159.040000 -13.823000 433.088000
159.622000 -13.830000 433.320000
160.154000 -13.833000 433.413000
160.803000 -13.846000 433.821000
161.345000 -13.850000 433.938000
162.020000 -13.865000 434.411000
162.594000 -13.872000 434.613000
163.208000 -13.881000 434.919000
163.818000 -13.891000 435.214000
164.529000 -13.909000 435.772000
165.212000 -13.924000 436.256000
103.190000 -15.293000 497.031000
103.584000 -15.267000 496.183000
103.964000 -15.239000 495.279000
104.385000 -15.218000 494.578000
104.789000 -15.194000 493.806000
105.196000 -15.171000 493.054000
105.572000 -15.144000 492.172000
105.975000 -15.120000 491.417000
106.372000 -15.097000 490.648000
106.775000 -15.074000 489.911000
107.151000 -15.048000 489.058000
107.539000 -15.024000 488.272000
107.935000 -15.001000 487.528000
108.334000 -14.978000 486.807000
108.710000 -14.953000 485.988000
109.090000 -14.929000 485.193000
109.479000 -14.906000 484.450000
109.868000 -14.883000 483.713000
110.250000 -14.860000 482.956000
110.625000 -14.836000 482.173000
111.017000 -14.814000 481.470000
111.421000 -14.794000 480.827000
111.785000 -14.770000 480.022000
112.100000 -14.739000 479.011000
112.413000 -14.708000 478.004000
112.721000 -14.676000 476.983000
113.052000 -14.648000 476.072000
113.380000 -14.620000 475.154000
113.730000 -14.595000 474.339000
114.090000 -14.571000 473.573000
114.490000 -14.553000 472.977000
114.874000 -14.533000 472.325000
115.284000 -14.516000 471.782000
115.592000 -14.487000 470.831000
115.956000 -14.465000 470.116000
116.261000 -14.436000 469.169000
116.618000 -14.413000 468.436000
116.923000 -14.385000 467.508000
117.330000 -14.369000 466.990000
117.724000 -14.351000 466.428000
118.200000 -14.344000 466.190000
118.682000 -14.338000 465.983000
119.111000 -14.325000 465.569000
119.588000 -14.318000 465.344000
120.007000 -14.304000 464.894000
120.493000 -14.299000 464.712000
120.902000 -14.284000 464.235000
121.426000 -14.283000 464.199000
121.790000 -14.263000 463.553000
122.337000 -14.265000 463.612000
122.702000 -14.245000 462.981000
123.238000 -14.246000 462.994000
123.601000 -14.226000 462.365000
124.128000 -14.226000 462.350000
124.504000 -14.208000 461.776000
125.045000 -14.210000 461.816000
125.439000 -14.194000 461.316000
126.080000 -14.207000 461.721000
126.515000 -14.196000 461.376000
127.215000 -14.215000 461.994000
127.785000 -14.219000 462.136000
128.477000 -14.237000 462.717000
129.137000 -14.251000 463.177000
129.805000 -14.266000 463.664000
130.570000 -14.292000 464.492000
131.100000 -14.292000 464.482000
131.968000 -14.328000 465.660000
132.416000 -14.319000 465.358000
133.378000 -14.365000 466.854000
133.741000 -14.346000 466.251000
134.750000 -14.397000 467.893000
134.987000 -14.365000 466.857000
135.972000 -14.412000 468.403000
136.265000 -14.386000 467.562000
136.843000 -14.391000 467.704000
137.198000 -14.372000 467.083000
137.732000 -14.371000 467.075000
138.124000 -14.356000 466.588000
138.634000 -14.354000 466.502000
139.041000 -14.340000 466.070000
139.492000 -14.332000 465.788000
146.637000 -13.419000 436.134000
146.994000 -13.406000 435.708000
147.387000 -13.396000 435.392000
147.784000 -13.387000 435.088000
148.185000 -13.378000 434.801000
148.584000 -13.369000 434.507000
149.001000 -13.362000 434.267000
149.421000 -13.355000 434.038000
149.828000 -13.347000 433.774000
150.299000 -13.344000 433.697000
150.692000 -13.335000 433.393000
151.178000 -13.334000 433.360000
151.570000 -13.325000 433.060000
152.073000 -13.325000 433.075000
152.490000 -13.318000 432.848000
152.971000 -13.317000 432.802000
153.431000 -13.314000 432.697000
153.921000 -13.313000 432.679000
154.418000 -13.313000 432.679000
154.895000 -13.311000 432.625000
155.403000 -13.312000 432.654000
155.878000 -13.310000 432.594000
156.419000 -13.314000 432.716000
156.910000 -13.314000 432.701000
157.465000 -13.319000 432.861000
157.980000 -13.320000 432.909000
158.552000 -13.326000 433.115000
159.073000 -13.328000 433.179000
159.659000 -13.336000 433.419000
160.180000 -13.338000 433.483000
160.800000 -13.348000 433.812000
161.358000 -13.353000 433.974000
161.993000 -13.364000 434.340000
162.602000 -13.373000 434.636000
163.238000 -13.384000 434.998000
163.858000 -13.394000 435.318000
164.532000 -13.408000 435.780000
165.231000 -13.425000 436.304000
165.924000 -13.440000 436.810000
103.695000 -14.713000 496.712000
104.085000 -14.688000 495.857000
104.516000 -14.668000 495.202000
104.908000 -14.644000 494.369000
105.307000 -14.620000 493.577000
105.695000 -14.595000 492.744000
106.102000 -14.573000 492.005000
106.492000 -14.550000 491.201000
106.884000 -14.526000 490.412000
107.264000 -14.502000 489.576000
107.672000 -14.481000 488.877000
108.066000 -14.458000 488.120000
108.453000 -14.435000 487.339000
108.828000 -14.411000 486.514000
109.221000 -14.389000 485.779000
109.616000 -14.368000 485.056000
109.998000 -14.345000 484.286000
110.369000 -14.321000 483.477000
110.740000 -14.297000 482.672000
111.153000 -14.279000 482.060000
111.537000 -14.257000 481.327000
111.889000 -14.232000 480.468000
112.216000 -14.203000 479.508000
112.548000 -14.176000 478.579000
112.872000 -14.147000 477.623000
113.196000 -14.120000 476.679000
113.519000 -14.092000 475.737000
113.881000 -14.069000 474.970000
114.222000 -14.044000 474.122000
114.636000 -14.028000 473.582000
115.031000 -14.010000 472.969000
115.365000 -13.984000 472.117000
115.688000 -13.958000 471.220000
116.021000 -13.933000 470.378000
116.334000 -13.906000 469.463000
116.648000 -13.879000 468.559000
116.935000 -13.849000 467.555000
117.300000 -13.829000 466.869000
117.662000 -13.809000 466.182000
118.114000 -13.799000 465.853000
118.562000 -13.789000 465.512000
119.001000 -13.778000 465.137000
119.449000 -13.768000 464.801000
119.850000 -13.752000 464.287000
120.342000 -13.748000 464.131000
120.743000 -13.733000 463.623000
121.270000 -13.732000 463.601000
121.651000 -13.715000 463.027000
122.187000 -13.716000 463.042000
122.544000 -13.696000 462.382000
123.065000 -13.695000 462.347000
123.437000 -13.677000 461.752000
123.980000 -13.679000 461.800000
124.324000 -13.658000 461.109000
124.928000 -13.666000 461.385000
125.305000 -13.650000 460.820000
126.040000 -13.672000 461.576000
126.478000 -13.662000 461.242000
127.231000 -13.686000 462.050000
127.871000 -13.698000 462.448000
128.540000 -13.713000 462.944000
129.221000 -13.728000 463.478000
129.895000 -13.744000 463.985000
130.694000 -13.772000 464.934000
131.187000 -13.767000 464.790000
132.035000 -13.800000 465.898000
132.496000 -13.793000 465.639000
133.458000 -13.837000 467.132000
133.761000 -13.813000 466.319000
134.886000 -13.873000 468.369000
135.188000 -13.849000 467.553000
135.805000 -13.857000 467.829000
136.110000 -13.834000 467.031000
136.686000 -13.838000 467.168000
137.052000 -13.821000 466.586000
137.563000 -13.818000 466.504000
137.949000 -13.803000 465.995000
138.437000 -13.798000 465.837000
138.848000 -13.786000 465.421000
139.332000 -13.781000 465.253000
146.338000 -12.936000 436.736000
146.707000 -12.925000 436.342000
147.059000 -12.912000 435.902000
147.461000 -12.903000 435.611000
147.854000 -12.894000 435.295000
148.257000 -12.885000 435.010000
148.662000 -12.877000 434.735000
149.073000 -12.869000 434.476000
149.486000 -12.862000 434.227000
149.906000 -12.855000 434.000000
150.364000 -12.852000 433.882000
150.760000 -12.843000 433.588000
151.249000 -12.842000 433.565000
151.634000 -12.833000 433.241000
152.137000 -12.833000 433.256000
152.548000 -12.826000 433.012000
153.052000 -12.827000 433.032000
153.498000 -12.822000 432.885000
153.981000 -12.821000 432.847000
154.454000 -12.819000 432.779000
154.945000 -12.819000 432.763000
155.441000 -12.819000 432.759000
155.924000 -12.817000 432.721000
156.464000 -12.821000 432.841000
156.960000 -12.821000 432.839000
157.505000 -12.825000 432.970000
158.006000 -12.825000 432.980000
158.591000 -12.832000 433.220000
159.107000 -12.834000 433.272000
159.689000 -12.841000 433.501000
160.206000 -12.842000 433.554000
160.828000 -12.852000 433.887000
161.364000 -12.855000 433.990000
162.019000 -12.867000 434.408000
162.610000 -12.875000 434.657000
163.269000 -12.887000 435.081000
163.883000 -12.896000 435.387000
164.531000 -12.908000 435.779000
165.199000 -12.921000 436.221000
165.887000 -12.936000 436.714000
103.848000 -14.163000 497.445000
104.241000 -14.139000 496.598000
104.648000 -14.117000 495.826000
105.032000 -14.092000 494.954000
105.438000 -14.071000 494.191000
105.836000 -14.048000 493.400000
106.246000 -14.028000 492.673000
106.625000 -14.003000 491.812000
107.016000 -13.980000 491.015000
107.410000 -13.958000 490.240000
107.812000 -13.938000 489.511000
