114.027000 1.618000 439.776000
114.398000 1.616000 439.258000
115.130000 1.619000 440.128000
115.429000 1.616000 439.346000
116.193000 1.620000 440.328000
116.525000 1.618000 439.672000
117.273000 1.621000 440.586000
117.664000 1.619000 440.157000
118.375000 1.622000 440.921000
118.830000 1.622000 440.733000
119.532000 1.624000 441.454000
140.841000 1.495000 406.405000
141.154000 1.494000 405.964000
141.482000 1.492000 405.566000
141.790000 1.490000 405.115000
142.121000 1.489000 404.734000
142.436000 1.488000 404.309000
142.784000 1.486000 403.979000
143.129000 1.485000 403.643000
143.487000 1.484000 403.349000
143.841000 1.483000 403.043000
144.193000 1.482000 402.733000
144.565000 1.481000 402.480000
144.924000 1.480000 402.193000
145.324000 1.479000 402.022000
145.672000 1.478000 401.710000
146.087000 1.477000 401.583000
146.429000 1.476000 401.256000
146.834000 1.476000 401.105000
147.203000 1.475000 400.855000
147.630000 1.474000 400.765000
148.013000 1.474000 400.554000
148.433000 1.473000 400.449000
148.821000 1.473000 400.256000
149.240000 1.472000 400.146000
149.662000 1.472000 400.046000
150.066000 1.471000 399.897000
150.500000 1.471000 399.830000
150.914000 1.471000 399.713000
151.364000 1.471000 399.689000
151.795000 1.470000 399.614000
152.246000 1.470000 399.593000
152.638000 1.470000 399.418000
153.143000 1.470000 399.541000
153.573000 1.470000 399.465000
154.037000 1.470000 399.480000
154.489000 1.470000 399.460000
154.969000 1.470000 399.518000
155.434000 1.470000 399.532000
155.935000 1.470000 399.640000
156.419000 1.471000 399.706000
156.922000 1.471000 399.816000
157.404000 1.471000 399.876000
157.936000 1.472000 400.060000
158.428000 1.472000 400.142000
158.967000 1.473000 400.342000
159.529000 1.474000 400.599000
160.026000 1.474000 400.692000
160.615000 1.475000 401.013000
161.137000 1.476000 401.168000
161.795000 1.478000 401.656000
84.552000 2.311000 478.751000
85.077000 2.310000 478.609000
85.457000 2.306000 477.660000
85.857000 2.302000 476.837000
86.355000 2.301000 476.563000
86.812000 2.298000 476.068000
87.200000 2.294000 475.205000
87.636000 2.291000 474.611000
88.136000 2.290000 474.369000
88.534000 2.286000 473.584000
88.935000 2.283000 472.822000
89.416000 2.281000 472.500000
89.863000 2.279000 471.994000
90.249000 2.275000 471.183000
90.679000 2.272000 470.603000
91.135000 2.270000 470.169000
91.569000 2.267000 469.624000
91.957000 2.263000 468.854000
92.425000 2.262000 468.498000
92.837000 2.259000 467.862000
93.268000 2.256000 467.332000
93.652000 2.252000 466.570000
94.127000 2.251000 466.269000
94.506000 2.247000 465.498000
94.959000 2.245000 465.101000
95.340000 2.242000 464.353000
95.812000 2.240000 464.060000
96.185000 2.236000 463.289000
96.629000 2.234000 462.867000
97.006000 2.231000 462.129000
97.484000 2.230000 461.880000
97.884000 2.227000 461.266000
98.298000 2.224000 460.723000
98.682000 2.221000 460.051000
99.149000 2.219000 459.767000
99.515000 2.216000 459.020000
99.875000 2.212000 458.253000
100.234000 2.209000 457.491000
100.667000 2.206000 457.069000
101.049000 2.203000 456.422000
101.407000 2.200000 455.679000
101.807000 2.197000 455.125000
102.260000 2.196000 454.816000
102.636000 2.192000 454.168000
102.979000 2.189000 453.383000
103.435000 2.187000 453.102000
103.824000 2.185000 452.531000
104.196000 2.181000 451.889000
108.673000 2.147000 444.728000
108.984000 2.143000 443.917000
109.511000 2.143000 443.987000
109.833000 2.140000 443.227000
110.151000 2.136000 442.459000
110.540000 2.134000 441.986000
110.978000 2.132000 441.709000
111.322000 2.129000 441.061000
111.633000 2.125000 440.291000
112.185000 2.126000 440.471000
112.485000 2.122000 439.669000
112.870000 2.120000 439.202000
113.326000 2.119000 439.016000
113.876000 2.120000 439.192000
114.264000 2.118000 438.744000
115.052000 2.123000 439.830000
115.373000 2.120000 439.131000
116.081000 2.124000 439.903000
116.448000 2.121000 439.382000
117.197000 2.126000 440.302000
117.631000 2.124000 440.032000
118.378000 2.129000 440.934000
118.859000 2.128000 440.839000
119.667000 2.133000 441.953000
130.008000 2.188000 453.236000
130.779000 2.192000 454.108000
141.920000 1.957000 405.488000
142.259000 1.956000 405.128000
142.578000 1.954000 404.712000
142.924000 1.952000 404.375000
143.255000 1.950000 403.999000
143.612000 1.949000 403.700000
143.965000 1.947000 403.388000
144.309000 1.946000 403.056000
144.679000 1.944000 402.798000
145.039000 1.943000 402.513000
145.432000 1.942000 402.323000
145.783000 1.941000 402.016000
146.191000 1.940000 401.869000
146.543000 1.939000 401.568000
146.964000 1.938000 401.460000
147.335000 1.937000 401.214000
147.763000 1.936000 401.126000
148.130000 1.935000 400.874000
148.556000 1.935000 400.780000
148.936000 1.934000 400.565000
149.359000 1.933000 400.466000
149.778000 1.933000 400.356000
150.190000 1.932000 400.229000
150.639000 1.932000 400.199000
151.044000 1.931000 400.057000
151.480000 1.931000 399.994000
151.894000 1.930000 399.875000
152.374000 1.931000 399.931000
152.761000 1.930000 399.740000
153.256000 1.930000 399.834000
153.694000 1.930000 399.780000
154.192000 1.930000 399.882000
154.621000 1.930000 399.802000
155.142000 1.931000 399.963000
155.584000 1.931000 399.917000
156.062000 1.931000 399.966000
156.522000 1.931000 399.967000
157.066000 1.932000 400.185000
157.527000 1.932000 400.188000
158.058000 1.933000 400.370000
158.611000 1.934000 400.605000
159.104000 1.934000 400.688000
159.688000 1.936000 401.000000
160.208000 1.937000 401.147000
160.819000 1.938000 401.524000
161.323000 1.939000 401.631000
161.991000 1.941000 402.143000
84.156000 2.866000 479.626000
84.640000 2.864000 479.246000
85.109000 2.861000 478.792000
85.490000 2.855000 477.845000
85.899000 2.851000 477.072000
86.446000 2.851000 477.067000
86.851000 2.846000 476.282000
87.238000 2.841000 475.409000
87.725000 2.839000 475.091000
88.185000 2.836000 474.631000
88.584000 2.832000 473.853000
88.994000 2.827000 473.137000
89.483000 2.826000 472.849000
89.904000 2.822000 472.213000
90.299000 2.817000 471.441000
90.760000 2.815000 471.023000
91.192000 2.811000 470.463000
91.614000 2.808000 469.857000
92.010000 2.803000 469.126000
92.485000 2.801000 468.803000
92.884000 2.797000 468.102000
93.321000 2.794000 467.598000
93.723000 2.790000 466.923000
94.196000 2.788000 466.613000
94.574000 2.784000 465.834000
95.022000 2.781000 465.410000
95.395000 2.776000 464.622000
95.867000 2.775000 464.324000
96.259000 2.771000 463.646000
96.704000 2.768000 463.229000
97.073000 2.763000 462.451000
97.551000 2.762000 462.198000
97.942000 2.758000 461.540000
98.362000 2.755000 461.025000
98.764000 2.751000 460.431000
99.205000 2.749000 460.023000
99.558000 2.744000 459.217000
99.915000 2.739000 458.435000
100.313000 2.736000 457.849000
100.741000 2.733000 457.405000
101.101000 2.729000 456.661000
101.456000 2.724000 455.899000
101.917000 2.723000 455.617000
102.319000 2.719000 455.081000
102.687000 2.715000 454.395000
103.016000 2.710000 453.549000
103.529000 2.710000 453.513000
103.872000 2.705000 452.738000
104.253000 2.702000 452.135000
108.386000 2.663000 445.649000
108.722000 2.659000 444.930000
109.127000 2.656000 444.498000
109.561000 2.654000 444.189000
109.878000 2.650000 443.407000
110.198000 2.645000 442.647000
110.672000 2.644000 442.510000
111.024000 2.641000 441.893000
111.368000 2.637000 441.243000
111.706000 2.633000 440.577000
112.210000 2.633000 440.570000
112.500000 2.628000 439.727000
112.867000 2.624000 439.192000
113.281000 2.622000 438.839000
113.774000 2.622000 438.798000
114.081000 2.618000 438.044000
114.862000 2.624000 439.107000
115.139000 2.619000 438.241000
115.953000 2.626000 439.416000
116.302000 2.622000 438.832000
117.183000 2.631000 440.249000
117.607000 2.629000 439.941000
118.424000 2.636000 441.104000
118.948000 2.636000 441.169000
119.970000 2.648000 443.073000
120.671000 2.652000 443.780000
129.678000 2.702000 452.087000
130.526000 2.708000 453.227000
130.857000 2.704000 452.574000
131.664000 2.710000 453.562000
142.399000 2.423000 405.525000
142.715000 2.421000 405.101000
143.063000 2.419000 404.770000
143.401000 2.417000 404.413000
143.753000 2.415000 404.095000
144.101000 2.413000 403.770000
144.449000 2.411000 403.447000
144.816000 2.409000 403.181000
145.178000 2.408000 402.901000
145.562000 2.406000 402.682000
145.917000 2.405000 402.385000
146.312000 2.403000 402.203000
146.661000 2.402000 401.892000
147.096000 2.401000 401.819000
147.465000 2.400000 401.568000
147.876000 2.399000 401.433000
148.247000 2.397000 401.189000
148.690000 2.397000 401.141000
149.072000 2.396000 400.931000
149.501000 2.395000 400.847000
149.907000 2.394000 400.702000
150.333000 2.394000 400.609000
150.764000 2.393000 400.534000
151.170000 2.393000 400.390000
151.605000 2.392000 400.325000
152.016000 2.391000 400.196000
152.506000 2.392000 400.276000
152.892000 2.391000 400.084000
153.409000 2.392000 400.233000
153.810000 2.391000 400.081000
154.313000 2.391000 400.196000
154.767000 2.391000 400.180000
155.289000 2.392000 400.341000
155.709000 2.392000 400.239000
156.218000 2.392000 400.365000
156.687000 2.393000 400.389000
157.213000 2.394000 400.559000
157.729000 2.394000 400.702000
158.223000 2.395000 400.786000
158.806000 2.397000 401.096000
159.255000 2.397000 401.068000
159.874000 2.399000 401.467000
160.414000 2.400000 401.663000
161.006000 2.402000 401.989000
161.559000 2.404000 402.217000
162.155000 2.406000 402.550000
84.177000 3.418000 479.744000
84.697000 3.416000 479.572000
85.134000 3.412000 478.930000
85.514000 3.405000 477.982000
85.959000 3.401000 477.403000
86.465000 3.399000 477.169000
86.878000 3.394000 476.429000
87.270000 3.388000 475.587000
87.789000 3.387000 475.442000
88.209000 3.382000 474.762000
88.610000 3.377000 473.992000
89.046000 3.373000 473.415000
89.516000 3.370000 473.026000
89.927000 3.365000 472.333000
90.320000 3.359000 471.549000
90.800000 3.357000 471.234000
91.225000 3.353000 470.635000
91.649000 3.349000 470.037000
92.052000 3.344000 469.340000
92.521000 3.341000 468.985000
92.918000 3.336000 468.270000
93.374000 3.333000 467.862000
93.767000 3.328000 467.143000
94.223000 3.325000 466.747000
94.600000 3.319000 465.962000
95.060000 3.317000 465.597000
95.435000 3.311000 464.820000
95.902000 3.309000 464.493000
96.285000 3.304000 463.772000
96.732000 3.301000 463.360000
97.112000 3.296000 462.638000
97.596000 3.294000 462.414000
97.974000 3.289000 461.689000
98.392000 3.285000 461.167000
98.804000 3.281000 460.620000
99.226000 3.278000 460.123000
99.573000 3.272000 459.286000
99.929000 3.266000 458.501000
100.340000 3.263000 457.974000
100.762000 3.259000 457.500000
101.128000 3.254000 456.781000
101.487000 3.249000 456.037000
101.981000 3.248000 455.904000
102.348000 3.243000 455.210000
102.716000 3.238000 454.526000
103.069000 3.233000 453.780000
103.572000 3.232000 453.701000
103.899000 3.226000 452.858000
104.271000 3.222000 452.216000
108.409000 3.175000 445.744000
108.737000 3.170000 444.991000
109.186000 3.168000 444.740000
109.582000 3.165000 444.274000
109.900000 3.159000 443.498000
110.225000 3.154000 442.759000
110.740000 3.154000 442.782000
111.057000 3.149000 442.023000
111.395000 3.144000 441.352000
111.756000 3.140000 440.776000
112.222000 3.139000 440.617000
112.509000 3.133000 439.763000
112.894000 3.130000 439.296000
113.311000 3.127000 438.958000
113.761000 3.126000 438.750000
114.054000 3.120000 437.937000
114.772000 3.126000 438.760000
115.065000 3.120000 437.958000
115.969000 3.131000 439.478000
116.339000 3.127000 438.971000
117.258000 3.138000 440.529000
117.675000 3.136000 440.195000
118.626000 3.148000 441.857000
119.258000 3.151000 442.320000
120.186000 3.162000 443.869000
120.931000 3.168000 444.737000
121.718000 3.175000 445.747000
129.606000 3.219000 451.836000
130.448000 3.227000 452.956000
130.762000 3.222000 452.242000
131.548000 3.228000 453.161000
142.529000 2.892000 405.897000
142.853000 2.889000 405.492000
143.199000 2.886000 405.155000
143.541000 2.884000 404.806000
143.888000 2.881000 404.475000
144.229000 2.879000 404.128000
144.584000 2.877000 403.825000
144.959000 2.875000 403.579000
145.307000 2.873000 403.258000
145.685000 2.871000 403.021000
146.048000 2.869000 402.747000
146.444000 2.868000 402.565000
146.801000 2.866000 402.277000
147.229000 2.865000 402.183000
147.591000 2.863000 401.912000
148.007000 2.862000 401.788000
148.384000 2.861000 401.561000
148.807000 2.860000 401.457000
149.200000 2.859000 401.275000
149.621000 2.858000 401.167000
150.023000 2.857000 401.010000
150.455000 2.856000 400.936000
150.887000 2.856000 400.859000
151.297000 2.855000 400.727000
151.751000 2.855000 400.709000
152.170000 2.854000 400.603000
152.634000 2.854000 400.613000
153.048000 2.853000 400.492000
153.562000 2.854000 400.634000
153.960000 2.853000 400.471000
154.476000 2.854000 400.618000
154.897000 2.853000 400.516000
155.405000 2.854000 400.640000
155.874000 2.854000 400.664000
156.367000 2.855000 400.747000
156.868000 2.856000 400.851000
157.365000 2.856000 400.947000
157.915000 2.858000 401.174000
158.411000 2.859000 401.263000
158.968000 2.860000 401.506000
159.446000 2.861000 401.549000
160.076000 2.864000 401.974000
160.597000 2.865000 402.123000
161.306000 2.869000 402.740000
161.758000 2.869000 402.714000
162.447000 2.873000 403.277000
84.263000 3.973000 480.233000
84.745000 3.969000 479.842000
85.163000 3.963000 479.092000
85.556000 3.956000 478.213000
86.084000 3.955000 478.099000
86.503000 3.949000 477.383000
86.913000 3.943000 476.621000
87.336000 3.937000 475.947000
87.847000 3.936000 475.755000
88.250000 3.929000 474.982000
88.655000 3.923000 474.234000
89.130000 3.920000 473.860000
89.563000 3.915000 473.275000
89.974000 3.909000 472.578000
90.392000 3.904000 471.926000
90.871000 3.901000 471.600000
91.269000 3.895000 470.859000
91.701000 3.890000 470.303000
92.133000 3.886000 469.753000
92.579000 3.882000 469.282000
92.962000 3.875000 468.495000
93.425000 3.872000 468.118000
93.827000 3.867000 467.445000
94.280000 3.863000 467.030000
94.655000 3.857000 466.236000
95.122000 3.854000 465.898000
95.495000 3.848000 465.111000
95.966000 3.845000 464.807000
96.348000 3.839000 464.072000
96.782000 3.835000 463.602000
97.179000 3.830000 462.955000
97.651000 3.827000 462.673000
98.036000 3.822000 461.983000
98.473000 3.818000 461.544000
98.878000 3.813000 460.961000
99.263000 3.808000 460.292000
99.614000 3.801000 459.476000
99.993000 3.795000 458.791000
100.427000 3.792000 458.370000
100.815000 3.787000 457.740000
101.179000 3.780000 457.010000
101.579000 3.776000 456.452000
102.054000 3.774000 456.232000
102.404000 3.768000 455.457000
102.772000 3.762000 454.770000
103.183000 3.758000 454.282000
103.621000 3.755000 453.918000
103.951000 3.748000 453.082000
108.462000 3.689000 445.962000
108.829000 3.684000 445.367000
109.293000 3.683000 445.176000
109.625000 3.677000 444.446000
109.952000 3.670000 443.706000
110.372000 3.667000 443.350000
110.792000 3.665000 442.993000
111.113000 3.658000 442.244000
111.451000 3.653000 441.572000
111.887000 3.650000 441.294000
112.279000 3.647000 440.843000
112.575000 3.640000 440.019000
112.993000 3.637000 439.679000
113.368000 3.633000 439.178000
113.775000 3.630000 438.801000
114.061000 3.623000 437.966000
114.632000 3.625000 438.227000
115.047000 3.622000 437.892000
116.063000 3.638000 439.833000
116.432000 3.634000 439.321000
117.419000 3.649000 441.133000
117.895000 3.648000 441.021000
119.093000 3.670000 443.596000
119.848000 3.677000 444.506000
120.587000 3.684000 445.353000
121.176000 3.686000 445.636000
121.913000 3.693000 446.463000
122.599000 3.698000 447.094000
123.368000 3.706000 448.022000
124.511000 3.725000 450.295000
124.994000 3.724000 450.174000
125.727000 3.730000 450.949000
126.177000 3.728000 450.707000
126.826000 3.732000 451.173000
127.171000 3.727000 450.561000
128.006000 3.736000 451.682000
129.428000 3.733000 451.216000
130.286000 3.742000 452.394000
130.590000 3.736000 451.648000
131.302000 3.742000 452.314000
142.705000 3.362000 406.397000
143.019000 3.358000 405.964000
143.358000 3.355000 405.603000
143.685000 3.352000 405.211000
144.021000 3.349000 404.850000
144.365000 3.346000 404.512000
144.714000 3.344000 404.187000
145.110000 3.342000 403.997000
145.467000 3.340000 403.702000
145.852000 3.338000 403.485000
146.209000 3.335000 403.190000
146.605000 3.334000 403.008000
146.964000 3.331000 402.722000
147.360000 3.330000 402.541000
147.728000 3.328000 402.285000
148.123000 3.326000 402.104000
148.528000 3.325000 401.950000
148.939000 3.324000 401.812000
149.329000 3.322000 401.620000
149.749000 3.321000 401.510000
150.166000 3.320000 401.393000
150.598000 3.320000 401.315000
151.020000 3.319000 401.212000
151.450000 3.318000 401.130000
151.898000 3.318000 401.098000
152.329000 3.317000 401.021000
152.762000 3.317000 400.947000
153.207000 3.316000 400.909000
153.698000 3.317000 400.989000
154.119000 3.316000 400.885000
154.601000 3.317000 400.941000
155.052000 3.316000 400.918000
155.556000 3.317000 401.030000
156.060000 3.318000 401.141000
156.517000 3.318000 401.133000
157.058000 3.320000 401.338000
157.535000 3.320000 401.380000
158.063000 3.322000 401.549000
158.578000 3.323000 401.687000
159.135000 3.325000 401.928000
159.679000 3.327000 402.135000
160.249000 3.329000 402.408000
160.828000 3.331000 402.700000
161.513000 3.336000 403.256000
162.022000 3.337000 403.370000
162.683000 3.341000 403.862000
83.815000 4.530000 480.826000
84.323000 4.527000 480.579000
84.770000 4.522000 479.984000
85.186000 4.515000 479.221000
85.578000 4.506000 478.338000
86.135000 4.507000 478.384000
86.526000 4.498000 477.505000
86.933000 4.491000 476.734000
87.389000 4.486000 476.233000
87.869000 4.483000 475.871000
88.274000 4.476000 475.109000
88.698000 4.470000 474.462000
89.194000 4.467000 474.203000
89.596000 4.460000 473.449000
90.000000 4.453000 472.715000
90.432000 4.448000 472.138000
90.906000 4.444000 471.782000
91.294000 4.437000 470.991000
91.721000 4.431000 470.404000
92.151000 4.426000 469.847000
92.604000 4.422000 469.406000
92.992000 4.415000 468.645000
93.465000 4.412000 468.319000
93.864000 4.405000 467.629000
94.311000 4.401000 467.184000
94.693000 4.394000 466.422000
95.165000 4.391000 466.111000
95.536000 4.383000 465.309000
95.991000 4.380000 464.925000
96.376000 4.373000 464.210000
96.835000 4.370000 463.856000
97.232000 4.364000 463.210000
97.677000 4.360000 462.794000
98.059000 4.353000 462.093000
98.510000 4.350000 461.719000
98.915000 4.344000 461.133000
99.282000 4.337000 460.382000
99.628000 4.329000 459.539000
100.013000 4.323000 458.883000
100.452000 4.319000 458.484000
100.837000 4.313000 457.841000
101.218000 4.307000 457.187000
101.647000 4.303000 456.758000
102.079000 4.299000 456.341000
102.421000 4.291000 455.534000
102.803000 4.285000 454.908000
103.239000 4.282000 454.531000
103.646000 4.277000 454.024000
103.969000 4.269000 453.162000
108.172000 4.210000 446.878000
108.478000 4.202000 446.027000
108.912000 4.199000 445.707000
109.330000 4.195000 445.326000
109.656000 4.188000 444.575000
109.979000 4.181000 443.817000
110.434000 4.179000 443.599000
110.824000 4.174000 443.121000
111.145000 4.167000 442.371000
111.519000 4.162000 441.841000
111.959000 4.160000 441.576000
112.310000 4.154000 440.963000
112.612000 4.147000 440.164000
113.076000 4.145000 440.004000
113.415000 4.139000 439.358000
113.806000 4.135000 438.920000
114.080000 4.127000 438.039000
114.699000 4.131000 438.481000
115.097000 4.127000 438.081000
116.203000 4.148000 440.365000
116.591000 4.144000 439.920000
117.596000 4.162000 441.798000
118.119000 4.163000 441.856000
119.224000 4.184000 444.085000
119.893000 4.189000 444.674000
120.641000 4.197000 445.551000
121.344000 4.204000 446.253000
122.051000 4.211000 446.967000
122.787000 4.218000 447.778000
123.522000 4.226000 448.581000
124.452000 4.240000 450.082000
124.912000 4.238000 449.879000
125.626000 4.245000 450.587000
126.010000 4.240000 450.109000
126.722000 4.247000 450.803000
127.031000 4.240000 450.065000
127.909000 4.252000 451.340000
129.303000 4.247000 450.778000
130.120000 4.256000 451.817000
130.472000 4.251000 451.240000
131.168000 4.257000 451.854000
131.587000 4.253000 451.511000
132.178000 4.256000 451.758000
132.655000 4.254000 451.615000
142.523000 3.836000 407.210000
142.847000 3.832000 406.803000
143.163000 3.828000 406.373000
143.499000 3.825000 406.002000
143.835000 3.821000 405.635000
144.182000 3.818000 405.302000
144.531000 3.815000 404.977000
144.881000 3.812000 404.654000
145.246000 3.809000 404.378000
145.597000 3.806000 404.063000
145.987000 3.805000 403.858000
146.338000 3.802000 403.546000
146.743000 3.800000 403.386000
147.088000 3.797000 403.062000
147.508000 3.796000 402.945000
147.866000 3.793000 402.660000
148.281000 3.792000 402.531000
148.670000 3.790000 402.333000
149.076000 3.789000 402.183000
149.479000 3.787000 402.025000
149.902000 3.786000 401.921000
150.342000 3.786000 401.863000
150.759000 3.785000 401.744000
151.175000 3.784000 401.625000
151.592000 3.782000 401.506000
152.060000 3.783000 401.526000
152.491000 3.782000 401.446000
152.952000 3.782000 401.447000
153.366000 3.781000 401.324000
153.849000 3.781000 401.382000
154.280000 3.780000 401.304000
154.795000 3.782000 401.446000
155.233000 3.781000 401.386000
155.735000 3.782000 401.491000
156.214000 3.783000 401.537000
156.738000 3.784000 401.698000
157.236000 3.785000 401.793000
157.738000 3.786000 401.897000
158.268000 3.788000 402.069000
158.810000 3.790000 402.273000
159.377000 3.792000 402.538000
159.902000 3.794000 402.697000
160.528000 3.797000 403.108000
161.029000 3.798000 403.204000
161.705000 3.803000 403.735000
162.318000 3.807000 404.107000
163.096000 3.814000 404.888000
83.862000 5.085000 481.097000
84.419000 5.085000 481.124000
84.808000 5.075000 480.200000
85.221000 5.067000 479.418000
85.667000 5.061000 478.836000
86.177000 5.058000 478.617000
86.564000 5.049000 477.717000
86.971000 5.041000 476.941000
87.484000 5.039000 476.755000
87.917000 5.032000 476.131000
88.315000 5.024000 475.334000
88.763000 5.018000 474.810000
89.243000 5.014000 474.460000
89.638000 5.006000 473.671000
90.043000 4.998000 472.941000
90.502000 4.994000 472.500000
90.949000 4.989000 472.006000
91.338000 4.980000 471.216000
91.789000 4.975000 470.757000
92.226000 4.970000 470.229000
92.658000 4.964000 469.679000
93.040000 4.956000 468.889000
93.526000 4.953000 468.625000
93.929000 4.946000 467.951000
94.373000 4.941000 467.490000
94.750000 4.932000 466.704000
95.227000 4.929000 466.416000
95.604000 4.921000 465.643000
96.061000 4.917000 465.266000
96.436000 4.909000 464.497000
96.897000 4.906000 464.153000
97.297000 4.899000 463.518000
97.739000 4.894000 463.090000
98.121000 4.887000 462.386000
98.568000 4.883000 461.992000
98.954000 4.876000 461.316000
99.318000 4.867000 460.550000
99.667000 4.859000 459.721000
100.103000 4.854000 459.298000
100.516000 4.849000 458.777000
100.889000 4.841000 458.075000
101.283000 4.835000 457.482000
101.751000 4.832000 457.224000
102.128000 4.825000 456.564000
102.472000 4.817000 455.761000
102.901000 4.812000 455.344000
103.325000 4.808000 454.909000
103.697000 4.801000 454.248000
108.218000 4.725000 447.067000
108.523000 4.716000 446.213000
109.060000 4.717000 446.310000
109.382000 4.709000 445.536000
109.712000 4.701000 444.802000
110.079000 4.695000 444.220000
110.537000 4.693000 444.012000
110.878000 4.685000 443.334000
111.195000 4.677000 442.571000
111.640000 4.675000 442.322000
112.010000 4.669000 441.775000
112.364000 4.663000 441.174000
112.669000 4.654000 440.388000
113.189000 4.655000 440.442000
113.477000 4.646000 439.600000
113.869000 4.641000 439.165000
114.177000 4.633000 438.410000
114.833000 4.640000 438.993000
115.151000 4.632000 438.285000
116.611000 4.670000 441.910000
117.132000 4.671000 441.962000
117.987000 4.685000 443.267000
118.585000 4.688000 443.600000
119.356000 4.699000 444.575000
119.907000 4.700000 444.727000
120.945000 4.721000 446.674000
121.825000 4.735000 448.024000
122.479000 4.740000 448.534000
123.189000 4.748000 449.245000
123.674000 4.747000 449.132000
124.263000 4.750000 449.397000
124.705000 4.747000 449.132000
125.394000 4.753000 449.754000
125.748000 4.747000 449.172000
126.564000 4.759000 450.242000
126.858000 4.750000 449.451000
127.730000 4.763000 450.707000
129.037000 4.754000 449.850000
129.782000 4.763000 450.646000
130.069000 4.754000 449.848000
130.886000 4.765000 450.882000
131.368000 4.764000 450.761000
131.991000 4.768000 451.120000
132.527000 4.768000 451.181000
133.049000 4.769000 451.195000
133.623000 4.771000 451.382000
142.708000 4.309000 407.739000
143.036000 4.305000 407.338000
143.339000 4.300000 406.871000
143.691000 4.297000 406.545000
144.036000 4.293000 406.202000
144.380000 4.289000 405.858000
144.729000 4.286000 405.531000
145.075000 4.282000 405.197000
145.433000 4.279000 404.899000
145.778000 4.276000 404.563000
146.152000 4.273000 404.315000
146.500000 4.270000 403.994000
146.901000 4.268000 403.820000
147.256000 4.265000 403.523000
147.677000 4.264000 403.408000
148.036000 4.261000 403.124000
148.460000 4.259000 403.017000
148.836000 4.257000 402.784000
149.255000 4.256000 402.665000
149.658000 4.254000 402.505000
150.081000 4.253000 402.402000
150.507000 4.252000 402.303000
150.917000 4.250000 402.166000
151.344000 4.249000 402.073000
151.749000 4.248000 401.925000
152.231000 4.248000 401.978000
152.655000 4.247000 401.879000
153.140000 4.248000 401.942000
153.549000 4.247000 401.802000
154.030000 4.247000 401.855000
154.476000 4.247000 401.814000
155.002000 4.248000 401.982000
155.425000 4.247000 401.881000
155.948000 4.249000 402.041000
156.386000 4.248000 401.979000
156.935000 4.251000 402.204000
157.404000 4.251000 402.222000
157.960000 4.254000 402.461000
158.506000 4.256000 402.676000
159.010000 4.257000 402.779000
159.600000 4.260000 403.103000
160.125000 4.262000 403.258000
160.764000 4.267000 403.700000
161.303000 4.269000 403.890000
161.914000 4.273000 404.258000
162.655000 4.280000 404.945000
163.295000 4.284000 405.381000
163.880000 4.287000 405.676000
83.903000 5.640000 481.332000
84.451000 5.639000 481.307000
84.839000 5.629000 480.372000
85.246000 5.619000 479.558000
85.730000 5.615000 479.186000
86.206000 5.610000 478.777000
86.596000 5.599000 477.893000
87.020000 5.591000 477.207000
87.532000 5.589000 477.017000
87.943000 5.581000 476.273000
88.345000 5.571000 475.494000
88.817000 5.567000 475.097000
89.270000 5.561000 474.607000
89.663000 5.552000 473.804000
90.083000 5.544000 473.150000
90.547000 5.539000 472.739000
90.983000 5.533000 472.181000
91.371000 5.523000 471.387000
91.832000 5.518000 470.977000
92.265000 5.512000 470.426000
92.704000 5.506000 469.915000
93.094000 5.497000 469.158000
93.565000 5.493000 468.820000
93.960000 5.485000 468.105000
94.410000 5.480000 467.674000
94.785000 5.470000 466.874000
95.255000 5.467000 466.551000
95.635000 5.458000 465.792000
96.090000 5.453000 465.405000
96.467000 5.444000 464.646000
96.936000 5.441000 464.338000
97.332000 5.433000 463.684000
97.762000 5.427000 463.197000
98.153000 5.420000 462.537000
98.612000 5.416000 462.199000
98.981000 5.407000 461.445000
99.343000 5.398000 460.664000
99.689000 5.388000 459.819000
100.140000 5.384000 459.466000
100.546000 5.377000 458.914000
100.920000 5.369000 458.217000
101.335000 5.363000 457.714000
101.783000 5.359000 457.366000
102.153000 5.351000 456.674000
102.501000 5.342000 455.891000
102.964000 5.339000 455.620000
103.349000 5.331000 455.013000
103.723000 5.324000 454.362000
108.241000 5.239000 447.162000
108.574000 5.231000 446.422000
109.093000 5.231000 446.449000
109.410000 5.222000 445.651000
109.737000 5.213000 444.901000
110.137000 5.208000 444.453000
110.566000 5.204000 444.129000
110.911000 5.196000 443.469000
111.228000 5.187000 442.703000
111.705000 5.186000 442.580000
112.034000 5.177000 441.872000
112.392000 5.171000 441.286000
112.719000 5.162000 440.581000
113.215000 5.162000 440.542000
113.505000 5.152000 439.708000
113.910000 5.148000 439.321000
114.225000 5.139000 438.593000
115.002000 5.151000 439.642000
115.361000 5.145000 439.086000
116.714000 5.182000 442.301000
117.180000 5.181000 442.143000
118.129000 5.200000 443.803000
118.668000 5.201000 443.912000
119.481000 5.215000 445.041000
120.062000 5.218000 445.301000
121.050000 5.238000 447.062000
121.875000 5.252000 448.207000
122.477000 5.255000 448.527000
123.112000 5.261000 448.964000
123.577000 5.258000 448.783000
124.155000 5.261000 449.008000
124.617000 5.259000 448.816000
125.317000 5.267000 449.478000
125.707000 5.261000 449.025000
126.512000 5.273000 450.056000
126.770000 5.263000 449.138000
127.646000 5.277000 450.411000
128.958000 5.268000 449.574000
129.713000 5.277000 450.403000
130.025000 5.269000 449.697000
130.803000 5.280000 450.596000
131.236000 5.276000 450.308000
131.892000 5.282000 450.780000
132.421000 5.282000 450.820000
132.953000 5.283000 450.867000
133.522000 5.285000 451.042000
142.920000 4.785000 408.343000
143.233000 4.779000 407.902000
143.542000 4.774000 407.449000
143.874000 4.770000 407.064000
144.212000 4.765000 406.697000
144.560000 4.761000 406.364000
144.908000 4.758000 406.033000
145.243000 4.753000 405.666000
145.599000 4.750000 405.359000
145.935000 4.745000 404.999000
146.307000 4.742000 404.742000
146.660000 4.739000 404.434000
147.077000 4.737000 404.305000
147.433000 4.734000 404.007000
147.847000 4.732000 403.873000
148.209000 4.729000 403.595000
148.631000 4.728000 403.481000
149.014000 4.725000 403.265000
149.442000 4.724000 403.171000
149.821000 4.721000 402.944000
150.243000 4.720000 402.835000
150.662000 4.719000 402.720000
151.086000 4.717000 402.617000
151.518000 4.717000 402.535000
151.943000 4.715000 402.436000
152.413000 4.716000 402.458000
152.815000 4.714000 402.300000
153.321000 4.715000 402.414000
153.741000 4.714000 402.305000
154.230000 4.715000 402.375000
154.663000 4.714000 402.301000
155.180000 4.715000 402.443000
155.616000 4.715000 402.376000
156.146000 4.717000 402.550000
156.622000 4.717000 402.587000
157.115000 4.718000 402.664000
157.648000 4.720000 402.846000
158.168000 4.722000 402.992000
158.757000 4.726000 403.312000
159.294000 4.728000 403.499000
159.859000 4.731000 403.756000
160.415000 4.734000 403.990000
161.086000 4.740000 404.510000
161.640000 4.742000 404.732000
162.347000 4.749000 405.338000
163.062000 4.757000 405.960000
163.685000 4.761000 406.348000
83.530000 6.206000 482.370000
83.994000 6.199000 481.854000
84.483000 6.194000 481.486000
84.875000 6.183000 480.578000
85.281000 6.172000 479.758000
85.816000 6.171000 479.668000
86.241000 6.162000 478.968000
86.634000 6.151000 478.104000
87.104000 6.145000 477.668000
87.575000 6.140000 477.247000
87.983000 6.130000 476.491000
88.388000 6.120000 475.723000
88.881000 6.117000 475.439000
89.313000 6.109000 474.835000
89.713000 6.099000 474.069000
90.156000 6.092000 473.536000
90.600000 6.085000 473.016000
91.027000 6.078000 472.409000
91.426000 6.068000 471.669000
91.906000 6.064000 471.354000
92.314000 6.055000 470.674000
92.756000 6.049000 470.178000
93.158000 6.040000 469.484000
93.625000 6.035000 469.119000
94.007000 6.025000 468.339000
94.462000 6.020000 467.928000
94.839000 6.010000 467.141000
95.313000 6.006000 466.834000
95.704000 5.997000 466.127000
96.148000 5.991000 465.684000
96.521000 5.981000 464.906000
97.002000 5.978000 464.655000
97.394000 5.969000 463.980000
97.822000 5.963000 463.485000
98.219000 5.955000 462.846000
98.672000 5.950000 462.477000
99.023000 5.939000 461.638000
99.389000 5.929000 460.876000
99.766000 5.920000 460.178000
100.230000 5.916000 459.879000
100.602000 5.907000 459.167000
100.978000 5.898000 458.480000
101.447000 5.895000 458.221000
101.841000 5.888000 457.628000
102.206000 5.878000 456.911000
102.553000 5.868000 456.122000
103.070000 5.868000 456.089000
103.408000 5.857000 455.271000
103.783000 5.849000 454.628000
107.950000 5.765000 448.088000
108.290000 5.755000 447.365000
108.723000 5.751000 447.036000
109.137000 5.746000 446.627000
109.463000 5.736000 445.866000
109.797000 5.727000 445.145000
110.273000 5.725000 445.002000
110.621000 5.717000 444.350000
110.961000 5.708000 443.667000
111.329000 5.701000 443.105000
111.785000 5.698000 442.896000
112.091000 5.688000 442.096000
112.449000 5.680000 441.509000
112.831000 5.674000 441.020000
113.284000 5.671000 440.811000
113.566000 5.660000 439.945000
114.045000 5.659000 439.842000
114.329000 5.648000 438.996000
115.796000 5.695000 442.675000
116.248000 5.692000 442.460000
116.885000 5.699000 442.951000
117.245000 5.691000 442.388000
118.464000 5.726000 445.062000
118.955000 5.725000 444.986000
119.940000 5.748000 446.751000
120.607000 5.755000 447.323000
121.226000 5.760000 447.713000
121.719000 5.759000 447.634000
122.271000 5.761000 447.771000
122.811000 5.762000 447.869000
123.278000 5.760000 447.694000
123.956000 5.767000 448.289000
124.360000 5.762000 447.890000
125.125000 5.774000 448.789000
125.491000 5.767000 448.255000
126.275000 5.779000 449.213000
126.527000 5.767000 448.278000
127.330000 5.780000 449.296000
127.502000 5.765000 448.086000
128.387000 5.781000 449.384000
128.646000 5.770000 448.487000
129.513000 5.786000 449.710000
129.866000 5.778000 449.145000
130.588000 5.788000 449.855000
130.994000 5.783000 449.475000
131.643000 5.788000 449.929000
132.100000 5.786000 449.728000
132.701000 5.790000 450.015000
133.256000 5.791000 450.145000
133.780000 5.792000 450.166000
134.368000 5.795000 450.407000
145.442000 5.226000 406.222000
145.806000 5.222000 405.936000
146.138000 5.218000 405.565000
146.509000 5.214000 405.302000
146.861000 5.210000 404.990000
147.286000 5.209000 404.878000
147.635000 5.205000 404.563000
148.040000 5.203000 404.399000
148.401000 5.199000 404.117000
148.804000 5.197000 403.952000
149.202000 5.195000 403.774000
149.621000 5.193000 403.653000
150.013000 5.191000 403.460000
150.431000 5.189000 403.340000
150.840000 5.187000 403.193000
151.269000 5.186000 403.104000
151.719000 5.186000 403.069000
152.158000 5.185000 403.005000
152.603000 5.184000 402.959000
153.036000 5.183000 402.881000
153.508000 5.184000 402.906000
153.953000 5.183000 402.860000
154.430000 5.183000 402.897000
154.907000 5.184000 402.934000
155.375000 5.184000 402.949000
155.863000 5.185000 403.014000
156.342000 5.185000 403.057000
156.858000 5.187000 403.193000
157.368000 5.189000 403.314000
157.895000 5.191000 403.476000
158.410000 5.193000 403.607000
83.560000 6.762000 482.542000
84.062000 6.758000 482.243000
84.508000 6.749000 481.630000
84.897000 6.736000 480.704000
85.328000 6.727000 480.022000
85.847000 6.724000 479.843000
86.266000 6.714000 479.109000
86.666000 6.702000 478.281000
87.164000 6.698000 478.000000
87.603000 6.690000 477.399000
88.014000 6.680000 476.659000
88.452000 6.671000 476.067000
88.933000 6.666000 475.717000
89.343000 6.656000 474.993000
89.744000 6.646000 474.232000
90.209000 6.640000 473.815000
90.636000 6.631000 473.200000
91.057000 6.622000 472.565000
91.466000 6.613000 471.880000
91.949000 6.608000 471.578000
92.348000 6.598000 470.850000
92.789000 6.591000 470.344000
93.188000 6.581000 469.634000
93.649000 6.576000 469.239000
94.040000 6.565000 468.502000
94.506000 6.560000 468.150000
94.886000 6.550000 467.374000
95.350000 6.545000 467.016000
95.740000 6.535000 466.302000
96.191000 6.529000 465.894000
96.569000 6.518000 465.137000
97.035000 6.514000 464.813000
97.426000 6.504000 464.132000
97.860000 6.498000 463.665000
98.266000 6.489000 463.070000
98.698000 6.483000 462.599000
99.048000 6.471000 461.754000
99.410000 6.460000 460.976000
99.819000 6.452000 460.420000
100.265000 6.447000 460.042000
100.638000 6.437000 459.334000
101.008000 6.427000 458.618000
101.485000 6.424000 458.395000
101.865000 6.415000 457.736000
102.235000 6.405000 457.041000
102.621000 6.396000 456.423000
103.100000 6.393000 456.223000
103.433000 6.382000 455.381000
103.805000 6.372000 454.724000
107.973000 6.281000 448.181000
108.316000 6.271000 447.474000
108.800000 6.269000 447.349000
109.160000 6.260000 446.723000
109.487000 6.250000 445.964000
109.862000 6.242000 445.408000
110.328000 6.239000 445.223000
110.655000 6.229000 444.486000
110.987000 6.219000 443.770000
111.382000 6.212000 443.315000
111.810000 6.208000 442.995000
112.123000 6.197000 442.223000
112.501000 6.190000 441.712000
112.896000 6.184000 441.274000
113.321000 6.179000 440.958000
113.608000 6.167000 440.105000
114.103000 6.167000 440.066000
114.403000 6.156000 439.277000
115.913000 6.210000 443.124000
116.294000 6.203000 442.635000
116.925000 6.209000 443.103000
117.354000 6.205000 442.802000
118.646000 6.246000 445.745000
119.175000 6.247000 445.807000
120.003000 6.264000 446.984000
120.564000 6.266000 447.163000
121.158000 6.271000 447.461000
121.628000 6.268000 447.299000
122.149000 6.269000 447.327000
122.712000 6.271000 447.508000
123.183000 6.269000 447.352000
123.909000 6.280000 448.117000
124.281000 6.273000 447.603000
125.028000 6.284000 448.442000
125.371000 6.276000 447.827000
126.135000 6.288000 448.716000
126.382000 6.275000 447.767000
127.238000 6.292000 448.971000
127.425000 6.275000 447.816000
128.301000 6.293000 449.082000
128.584000 6.282000 448.273000
129.361000 6.295000 449.182000
129.745000 6.288000 448.725000
130.442000 6.297000 449.353000
130.892000 6.294000 449.127000
131.489000 6.298000 449.404000
131.983000 6.297000 449.328000
132.539000 6.299000 449.465000
133.109000 6.301000 449.647000
133.654000 6.303000 449.743000
134.235000 6.306000 449.961000
134.713000 6.304000 449.830000
146.028000 5.697000 406.554000
146.354000 5.692000 406.164000
146.734000 5.688000 405.926000
147.077000 5.684000 405.584000
147.473000 5.681000 405.393000
147.815000 5.676000 405.054000
148.240000 5.675000 404.946000
148.593000 5.670000 404.639000
149.026000 5.669000 404.553000
149.409000 5.666000 404.334000
149.816000 5.664000 404.180000
150.221000 5.662000 404.020000
150.626000 5.660000 403.862000
151.038000 5.658000 403.723000
151.465000 5.656000 403.628000
151.924000 5.656000 403.614000
152.331000 5.654000 403.464000
152.798000 5.654000 403.474000
153.222000 5.653000 403.372000
153.715000 5.654000 403.449000
154.138000 5.652000 403.345000
154.690000 5.656000 403.576000
155.102000 5.654000 403.442000
155.630000 5.656000 403.611000
156.079000 5.656000 403.573000
156.626000 5.658000 403.787000
157.111000 5.659000 403.842000
157.663000 5.662000 404.069000
158.109000 5.662000 404.024000
158.685000 5.666000 404.309000
83.155000 7.329000 483.413000
83.633000 7.323000 482.966000
84.122000 7.317000 482.591000
84.539000 7.305000 481.810000
84.935000 7.292000 480.918000
85.435000 7.287000 480.625000
85.884000 7.278000 480.047000
86.303000 7.267000 479.312000
86.733000 7.257000 478.648000
87.244000 7.254000 478.438000
87.644000 7.242000 477.622000
88.049000 7.230000 476.846000
88.517000 7.223000 476.419000
88.971000 7.216000 475.922000
89.381000 7.205000 475.198000
89.801000 7.195000 474.532000
90.277000 7.189000 474.169000
90.679000 7.178000 473.425000
91.102000 7.168000 472.798000
91.532000 7.160000 472.218000
91.995000 7.154000 471.813000
92.387000 7.142000 471.049000
92.849000 7.136000 470.647000
93.266000 7.126000 470.028000
93.714000 7.119000 469.565000
94.089000 7.107000 468.748000
94.558000 7.102000 468.403000
94.943000 7.090000 467.650000
95.409000 7.085000 467.306000
95.793000 7.074000 466.562000
96.244000 7.068000 466.151000
96.634000 7.057000 465.452000
97.097000 7.052000 465.110000
97.481000 7.041000 464.393000
97.919000 7.034000 463.944000
98.333000 7.026000 463.384000
98.741000 7.017000 462.803000
99.092000 7.004000 461.959000
99.476000 6.994000 461.281000
99.919000 6.988000 460.881000
100.320000 6.979000 460.292000
100.692000 6.968000 459.577000
101.090000 6.959000 458.992000
101.549000 6.954000 458.681000
101.905000 6.943000 457.914000
102.278000 6.932000 457.232000
102.698000 6.925000 456.768000
103.143000 6.920000 456.413000
103.481000 6.908000 455.595000
108.022000 6.798000 448.387000
108.450000 6.793000 448.026000
108.878000 6.788000 447.671000
109.217000 6.777000 446.954000
109.538000 6.765000 446.172000
109.974000 6.760000 445.862000
110.378000 6.753000 445.425000
110.708000 6.742000 444.699000
111.083000 6.734000 444.156000
111.522000 6.730000 443.872000
111.871000 6.720000 443.236000
112.183000 6.708000 442.459000
112.623000 6.704000 442.192000
112.999000 6.697000 441.675000
113.385000 6.689000 441.205000
113.670000 6.676000 440.345000
114.247000 6.681000 440.622000
114.536000 6.668000 439.791000
116.084000 6.728000 443.778000
116.455000 6.720000 443.248000
117.138000 6.730000 443.909000
118.022000 6.752000 445.322000
118.995000 6.778000 447.055000
119.398000 6.772000 446.642000
119.850000 6.768000 446.417000
120.278000 6.764000 446.104000
120.881000 6.769000 446.438000
121.354000 6.767000 446.290000
121.893000 6.768000 446.390000
122.527000 6.775000 446.832000
122.979000 6.771000 446.609000
123.680000 6.782000 447.290000
124.054000 6.774000 446.786000
124.747000 6.784000 447.433000
125.063000 6.773000 446.725000
125.855000 6.788000 447.718000
126.086000 6.773000 446.718000
127.021000 6.796000 448.206000
127.250000 6.780000 447.203000
128.048000 6.796000 448.199000
128.379000 6.786000 447.557000
129.104000 6.797000 448.290000
129.496000 6.790000 447.865000
130.162000 6.798000 448.389000
130.645000 6.797000 448.280000
131.249000 6.801000 448.585000
131.770000 6.802000 448.602000
132.289000 6.802000 448.617000
132.884000 6.806000 448.889000
133.381000 6.805000 448.826000
134.017000 6.811000 449.228000
134.463000 6.808000 448.997000
135.148000 6.816000 449.558000
146.586000 6.168000 406.808000
146.961000 6.164000 406.552000
147.300000 6.159000 406.200000
147.698000 6.156000 406.010000
148.042000 6.151000 405.678000
148.462000 6.149000 405.552000
148.820000 6.144000 405.258000
149.237000 6.142000 405.126000
149.609000 6.139000 404.874000
150.031000 6.137000 404.759000
150.427000 6.134000 404.574000
150.837000 6.132000 404.428000
151.258000 6.130000 404.313000
151.688000 6.129000 404.221000
152.147000 6.128000 404.206000
152.547000 6.126000 404.038000
153.052000 6.128000 404.146000
153.451000 6.125000 403.974000
153.965000 6.127000 404.107000
154.354000 6.124000 403.909000
154.945000 6.129000 404.242000
155.326000 6.126000 404.025000
155.883000 6.129000 404.265000
156.331000 6.129000 404.225000
156.891000 6.133000 404.470000
157.404000 6.134000 404.596000
157.916000 6.136000 404.718000
158.488000 6.140000 404.993000
159.024000 6.143000 405.173000
83.180000 7.887000 483.556000
83.705000 7.884000 483.379000
84.152000 7.874000 482.763000
84.565000 7.861000 481.956000
84.960000 7.846000 481.060000
85.504000 7.845000 481.013000
85.915000 7.832000 480.221000
86.331000 7.820000 479.472000
86.790000 7.812000 478.967000
87.272000 7.806000 478.590000
87.671000 7.792000 477.769000
88.078000 7.780000 477.003000
88.567000 7.775000 476.691000
88.993000 7.764000 476.040000
89.405000 7.753000 475.325000
89.848000 7.744000 474.779000
90.328000 7.738000 474.438000
90.718000 7.725000 473.628000
91.135000 7.714000 472.973000
91.577000 7.706000 472.452000
92.036000 7.699000 472.023000
92.428000 7.686000 471.256000
92.892000 7.680000 470.865000
93.307000 7.670000 470.234000
93.750000 7.662000 469.745000
94.128000 7.648000 468.940000
94.597000 7.643000 468.601000
94.978000 7.630000 467.827000
95.443000 7.625000 467.472000
95.827000 7.612000 466.730000
96.290000 7.607000 466.376000
96.682000 7.595000 465.682000
97.132000 7.589000 465.275000
97.515000 7.577000 464.555000
97.972000 7.571000 464.194000
98.386000 7.562000 463.633000
98.760000 7.550000 462.892000
99.110000 7.536000 462.046000
99.510000 7.526000 461.441000
99.960000 7.520000 461.073000
100.350000 7.510000 460.431000
100.723000 7.498000 459.721000
101.144000 7.490000 459.236000
101.577000 7.483000 458.811000
101.938000 7.471000 458.063000
102.320000 7.461000 457.422000
102.759000 7.454000 457.035000
103.165000 7.446000 456.513000
103.508000 7.433000 455.712000
107.734000 7.329000 449.332000
108.049000 7.315000 448.499000
108.537000 7.313000 448.386000
108.906000 7.303000 447.784000
109.243000 7.292000 447.061000
109.565000 7.279000 446.281000
110.053000 7.277000 446.181000
110.405000 7.267000 445.537000
110.728000 7.254000 444.779000
111.118000 7.247000 444.296000
111.550000 7.241000 443.985000
111.906000 7.232000 443.377000
112.219000 7.219000 442.601000
112.681000 7.216000 442.421000
113.030000 7.206000 441.797000
113.419000 7.198000 441.338000
113.727000 7.186000 440.569000
114.319000 7.191000 440.900000
114.664000 7.181000 440.282000
116.144000 7.242000 444.005000
116.556000 7.236000 443.635000
117.278000 7.249000 444.439000
118.137000 7.270000 445.755000
119.040000 7.294000 447.226000
119.414000 7.286000 446.704000
119.790000 7.277000 446.191000
120.197000 7.271000 445.800000
120.776000 7.275000 446.050000
121.303000 7.276000 446.102000
121.859000 7.279000 446.265000
122.477000 7.285000 446.648000
122.922000 7.281000 446.401000
123.600000 7.291000 446.999000
123.972000 7.282000 446.493000
124.658000 7.292000 447.114000
125.002000 7.283000 446.509000
125.814000 7.300000 447.573000
126.057000 7.284000 446.612000
126.951000 7.306000 447.960000
127.176000 7.290000 446.941000
127.986000 7.307000 447.982000
128.299000 7.295000 447.279000
129.060000 7.309000 448.138000
129.441000 7.302000 447.675000
130.078000 7.309000 448.099000
130.537000 7.305000 447.909000
131.162000 7.312000 448.285000
131.683000 7.312000 448.307000
132.237000 7.314000 448.442000
132.823000 7.318000 448.681000
133.281000 7.315000 448.489000
133.935000 7.322000 448.954000
134.359000 7.318000 448.649000
135.051000 7.327000 449.236000
148.700000 6.625000 406.202000
149.079000 6.621000 405.965000
149.471000 6.618000 405.763000
149.846000 6.614000 405.516000
150.259000 6.612000 405.374000
150.653000 6.609000 405.182000
151.076000 6.607000 405.068000
151.514000 6.606000 404.996000
151.960000 6.605000 404.944000
152.387000 6.603000 404.844000
152.834000 6.602000 404.798000
153.308000 6.603000 404.821000
153.738000 6.601000 404.728000
154.210000 6.601000 404.747000
154.641000 6.600000 404.659000
155.190000 6.604000 404.880000
155.620000 6.602000 404.789000
156.153000 6.605000 404.967000
156.638000 6.606000 405.019000
157.163000 6.608000 405.173000
157.700000 6.611000 405.356000
158.266000 6.616000 405.615000
158.794000 6.618000 405.775000
159.371000 6.623000 406.056000
83.216000 8.446000 483.763000
83.767000 8.445000 483.738000
84.182000 8.431000 482.935000
84.600000 8.418000 482.155000
85.024000 8.405000 481.421000
85.555000 8.403000 481.302000
85.950000 8.387000 480.419000
86.364000 8.374000 479.650000
86.859000 8.369000 479.345000
87.309000 8.359000 478.793000
87.709000 8.345000 477.980000
88.148000 8.334000 477.382000
88.637000 8.329000 477.066000
89.043000 8.316000 476.305000
89.449000 8.302000 475.559000
89.907000 8.294000 475.095000
90.368000 8.287000 474.650000
90.766000 8.273000 473.878000
91.206000 8.264000 473.342000
91.643000 8.254000 472.790000
92.085000 8.245000 472.275000
92.478000 8.232000 471.510000
92.949000 8.226000 471.154000
93.357000 8.214000 470.483000
93.799000 8.205000 469.995000
94.183000 8.192000 469.215000
94.654000 8.186000 468.881000
95.040000 8.173000 468.130000
95.500000 8.166000 467.752000
95.879000 8.153000 466.981000
96.348000 8.147000 466.656000
96.752000 8.136000 466.022000
97.195000 8.128000 465.581000
97.574000 8.115000 464.839000
98.039000 8.110000 464.511000
98.428000 8.098000 463.830000
98.800000 8.085000 463.077000
99.153000 8.070000 462.244000
99.595000 8.063000 461.834000
100.016000 8.054000 461.331000
100.390000 8.042000 460.616000
100.780000 8.031000 459.980000
101.236000 8.025000 459.652000
101.629000 8.014000 459.046000
101.990000 8.001000 458.299000
102.427000 7.994000 457.897000
102.847000 7.986000 457.428000
103.217000 7.974000 456.742000
107.781000 7.848000 449.529000
108.093000 7.833000 448.679000
108.628000 7.835000 448.761000
108.955000 7.821000 447.987000
109.295000 7.809000 447.272000
