37.560000 5.021000 390.307000
37.968000 5.016000 389.895000
38.387000 5.012000 389.608000
38.799000 5.008000 389.247000
39.226000 5.005000 389.050000
39.632000 5.000000 388.650000
40.058000 4.998000 388.453000
40.474000 4.994000 388.163000
40.898000 4.991000 387.958000
41.316000 4.988000 387.704000
41.745000 4.986000 387.550000
42.161000 4.982000 387.282000
42.587000 4.980000 387.121000
43.007000 4.978000 386.897000
43.437000 4.976000 386.767000
43.861000 4.974000 386.588000
44.296000 4.973000 386.517000
44.712000 4.969000 386.271000
45.152000 4.969000 386.241000
45.572000 4.967000 386.048000
46.014000 4.966000 386.029000
46.443000 4.965000 385.915000
46.887000 4.965000 385.922000
47.316000 4.964000 385.810000
47.760000 4.964000 385.811000
48.193000 4.963000 385.735000
48.638000 4.963000 385.751000
49.072000 4.962000 385.678000
49.519000 4.962000 385.712000
49.936000 4.960000 385.512000
50.372000 4.959000 385.461000
50.796000 4.957000 385.320000
51.250000 4.958000 385.409000
51.692000 4.958000 385.406000
52.144000 4.959000 385.475000
52.598000 4.960000 385.557000
53.044000 4.961000 385.579000
53.500000 4.962000 385.676000
53.961000 4.963000 385.805000
54.430000 4.966000 385.990000
54.906000 4.969000 386.221000
55.361000 4.970000 386.298000
55.825000 4.972000 386.439000
56.295000 4.974000 386.623000
56.752000 4.975000 386.708000
57.219000 4.977000 386.864000
57.699000 4.980000 387.109000
58.171000 4.983000 387.290000
58.646000 4.985000 387.493000
59.142000 4.989000 387.826000
59.611000 4.991000 387.979000
60.114000 4.996000 388.350000
60.593000 4.999000 388.562000
61.108000 5.005000 389.000000
61.600000 5.008000 389.285000
62.120000 5.014000 389.748000
62.627000 5.019000 390.113000
63.170000 5.027000 390.703000
63.676000 5.031000 391.055000
64.236000 5.040000 391.731000
64.761000 5.046000 392.185000
65.352000 5.056000 393.034000
37.141000 5.474000 390.614000
37.561000 5.470000 390.316000
37.967000 5.464000 389.888000
38.385000 5.459000 389.581000
38.796000 5.454000 389.218000
39.226000 5.452000 389.047000
39.632000 5.446000 388.653000
40.057000 5.444000 388.446000
40.475000 5.440000 388.177000
40.897000 5.437000 387.951000
41.313000 5.433000 387.674000
41.742000 5.431000 387.522000
42.158000 5.427000 387.263000
42.585000 5.425000 387.100000
43.008000 5.422000 386.903000
43.437000 5.420000 386.771000
43.857000 5.417000 386.560000
44.294000 5.416000 386.500000
44.710000 5.413000 386.252000
45.153000 5.413000 386.250000
45.572000 5.410000 386.041000
46.010000 5.409000 386.003000
46.442000 5.408000 385.903000
46.882000 5.408000 385.883000
47.318000 5.407000 385.819000
47.757000 5.406000 385.792000
48.195000 5.406000 385.752000
48.636000 5.406000 385.737000
49.075000 5.405000 385.707000
49.518000 5.405000 385.706000
49.939000 5.403000 385.533000
50.365000 5.401000 385.408000
50.788000 5.399000 385.262000
51.239000 5.400000 385.327000
51.689000 5.401000 385.379000
52.142000 5.402000 385.455000
52.596000 5.403000 385.540000
53.044000 5.403000 385.577000
53.500000 5.405000 385.676000
53.967000 5.407000 385.845000
54.434000 5.410000 386.019000
54.903000 5.412000 386.197000
55.360000 5.413000 386.291000
55.824000 5.415000 386.435000
56.293000 5.418000 386.610000
56.751000 5.419000 386.706000
57.221000 5.422000 386.881000
57.699000 5.425000 387.105000
58.170000 5.427000 387.284000
58.649000 5.430000 387.507000
59.138000 5.434000 387.797000
59.611000 5.437000 387.980000
60.112000 5.442000 388.338000
60.594000 5.445000 388.568000
61.097000 5.450000 388.931000
61.597000 5.455000 389.269000
62.118000 5.462000 389.733000
62.627000 5.467000 390.114000
63.171000 5.475000 390.712000
63.682000 5.481000 391.090000
64.231000 5.489000 391.700000
64.762000 5.496000 392.196000
65.349000 5.508000 393.015000
37.142000 5.923000 390.629000
37.560000 5.918000 390.309000
37.967000 5.911000 389.883000
38.386000 5.907000 389.599000
38.797000 5.901000 389.225000
39.226000 5.899000 389.049000
39.632000 5.893000 388.648000
40.059000 5.890000 388.467000
40.477000 5.886000 388.193000
40.894000 5.882000 387.926000
41.312000 5.878000 387.668000
41.743000 5.876000 387.531000
42.160000 5.872000 387.277000
42.587000 5.869000 387.118000
43.009000 5.866000 386.910000
43.434000 5.864000 386.743000
43.856000 5.861000 386.548000
44.294000 5.860000 386.495000
44.707000 5.856000 386.231000
45.155000 5.857000 386.269000
45.571000 5.853000 386.039000
46.013000 5.853000 386.025000
46.442000 5.851000 385.909000
46.882000 5.851000 385.878000
47.318000 5.850000 385.819000
47.759000 5.850000 385.811000
48.196000 5.849000 385.758000
48.636000 5.848000 385.736000
49.071000 5.847000 385.670000
49.517000 5.848000 385.697000
49.939000 5.845000 385.537000
50.368000 5.844000 385.432000
50.790000 5.841000 385.276000
51.240000 5.842000 385.334000
51.689000 5.843000 385.383000
52.144000 5.844000 385.471000
52.594000 5.845000 385.524000
53.048000 5.847000 385.609000
53.508000 5.848000 385.735000
53.973000 5.851000 385.889000
54.435000 5.853000 386.023000
54.902000 5.855000 386.192000
55.362000 5.857000 386.307000
55.821000 5.859000 386.414000
56.286000 5.861000 386.564000
56.754000 5.864000 386.728000
57.226000 5.866000 386.917000
57.698000 5.869000 387.098000
58.175000 5.872000 387.317000
58.652000 5.876000 387.528000
59.137000 5.880000 387.792000
59.609000 5.882000 387.968000
60.113000 5.888000 388.341000
60.595000 5.892000 388.576000
61.100000 5.897000 388.952000
61.603000 5.903000 389.308000
62.120000 5.909000 389.748000
62.623000 5.915000 390.093000
63.180000 5.925000 390.764000
63.679000 5.929000 391.074000
64.236000 5.939000 391.734000
64.768000 5.947000 392.228000
65.347000 5.959000 393.006000
65.889000 5.967000 393.545000
37.142000 6.371000 390.631000
37.559000 6.366000 390.301000
37.969000 6.359000 389.902000
38.389000 6.355000 389.626000
38.799000 6.349000 389.254000
39.224000 6.345000 389.033000
39.631000 6.339000 388.639000
40.060000 6.336000 388.474000
40.478000 6.332000 388.209000
40.895000 6.327000 387.929000
41.313000 6.323000 387.677000
41.745000 6.321000 387.554000
42.160000 6.317000 387.276000
42.589000 6.314000 387.133000
43.010000 6.311000 386.920000
43.435000 6.308000 386.754000
43.857000 6.305000 386.553000
44.292000 6.304000 386.480000
44.709000 6.300000 386.249000
45.157000 6.300000 386.286000
45.575000 6.297000 386.071000
46.018000 6.297000 386.069000
46.442000 6.294000 385.910000
46.882000 6.294000 385.883000
47.316000 6.293000 385.804000
47.760000 6.293000 385.813000
48.197000 6.292000 385.763000
48.635000 6.291000 385.730000
49.071000 6.290000 385.672000
49.515000 6.291000 385.683000
49.939000 6.288000 385.535000
50.373000 6.287000 385.469000
50.797000 6.285000 385.325000
51.248000 6.286000 385.396000
51.691000 6.286000 385.397000
52.148000 6.288000 385.506000
52.597000 6.288000 385.549000
53.054000 6.290000 385.654000
53.514000 6.292000 385.774000
53.970000 6.294000 385.867000
54.433000 6.296000 386.011000
54.905000 6.299000 386.213000
55.359000 6.300000 386.286000
55.818000 6.302000 386.397000
56.283000 6.305000 386.542000
56.757000 6.308000 386.744000
57.232000 6.311000 386.954000
57.703000 6.314000 387.131000
58.172000 6.317000 387.298000
58.652000 6.321000 387.531000
59.139000 6.325000 387.804000
59.606000 6.327000 387.949000
60.119000 6.335000 388.385000
60.601000 6.338000 388.611000
61.108000 6.345000 389.000000
61.598000 6.349000 389.273000
62.126000 6.357000 389.782000
62.622000 6.362000 390.086000
63.181000 6.373000 390.769000
63.675000 6.378000 391.049000
64.225000 6.388000 391.663000
64.779000 6.398000 392.296000
65.360000 6.411000 393.080000
37.142000 6.820000 390.627000
37.562000 6.814000 390.327000
37.970000 6.807000 389.920000
38.391000 6.803000 389.648000
38.801000 6.796000 389.272000
39.229000 6.793000 389.077000
39.633000 6.785000 388.663000
40.061000 6.782000 388.486000
40.478000 6.777000 388.208000
40.898000 6.773000 387.958000
41.317000 6.769000 387.710000
41.746000 6.766000 387.561000
42.162000 6.762000 387.294000
42.592000 6.759000 387.158000
43.011000 6.755000 386.936000
43.440000 6.753000 386.794000
43.863000 6.750000 386.614000
44.297000 6.748000 386.525000
44.713000 6.744000 386.282000
45.157000 6.744000 386.290000
45.580000 6.741000 386.112000
46.023000 6.741000 386.105000
46.447000 6.738000 385.950000
46.887000 6.738000 385.924000
47.319000 6.736000 385.834000
47.759000 6.736000 385.806000
48.191000 6.734000 385.715000
48.636000 6.734000 385.734000
49.068000 6.733000 385.650000
49.514000 6.733000 385.672000
49.934000 6.730000 385.501000
50.381000 6.731000 385.529000
50.811000 6.729000 385.436000
51.261000 6.730000 385.489000
51.702000 6.730000 385.476000
52.156000 6.731000 385.564000
52.605000 6.732000 385.609000
53.057000 6.733000 385.678000
53.518000 6.735000 385.803000
53.973000 6.737000 385.891000
54.436000 6.740000 386.036000
54.903000 6.742000 386.197000
55.361000 6.744000 386.302000
55.822000 6.746000 386.424000
56.286000 6.749000 386.561000
56.754000 6.752000 386.728000
57.235000 6.756000 386.976000
57.704000 6.759000 387.138000
58.174000 6.762000 387.310000
58.656000 6.766000 387.557000
59.147000 6.771000 387.861000
59.612000 6.774000 387.984000
60.120000 6.781000 388.389000
60.605000 6.785000 388.640000
61.114000 6.792000 389.042000
61.604000 6.797000 389.314000
62.129000 6.805000 389.801000
62.634000 6.812000 390.160000
63.185000 6.823000 390.793000
63.672000 6.827000 391.032000
64.239000 6.839000 391.749000
64.771000 6.848000 392.249000
65.350000 6.862000 393.022000
37.147000 7.269000 390.679000
37.568000 7.264000 390.393000
37.977000 7.256000 389.986000
38.394000 7.250000 389.671000
38.805000 7.244000 389.315000
39.234000 7.240000 389.130000
39.638000 7.233000 388.711000
40.063000 7.229000 388.506000
40.484000 7.224000 388.263000
40.903000 7.220000 388.011000
41.323000 7.215000 387.767000
41.751000 7.212000 387.610000
42.169000 7.207000 387.358000
42.599000 7.205000 387.225000
43.018000 7.201000 386.995000
43.445000 7.198000 386.844000
43.868000 7.194000 386.654000
44.302000 7.193000 386.564000
44.718000 7.188000 386.322000
45.161000 7.188000 386.318000
45.583000 7.185000 386.140000
46.024000 7.184000 386.115000
46.452000 7.182000 385.989000
46.892000 7.181000 385.960000
47.322000 7.180000 385.859000
47.761000 7.179000 385.825000
48.192000 7.177000 385.725000
48.637000 7.177000 385.744000
49.068000 7.176000 385.645000
49.514000 7.176000 385.670000
49.938000 7.173000 385.525000
50.388000 7.174000 385.587000
50.825000 7.174000 385.543000
51.270000 7.174000 385.555000
51.713000 7.174000 385.557000
52.161000 7.175000 385.602000
52.616000 7.176000 385.688000
53.070000 7.178000 385.772000
53.523000 7.179000 385.844000
53.981000 7.181000 385.952000
54.436000 7.183000 386.033000
54.908000 7.186000 386.232000
55.365000 7.188000 386.326000
55.825000 7.190000 386.445000
56.295000 7.194000 386.621000
56.761000 7.197000 386.775000
57.236000 7.200000 386.983000
57.708000 7.204000 387.167000
58.183000 7.208000 387.371000
58.659000 7.211000 387.575000
59.157000 7.218000 387.926000
59.619000 7.220000 388.030000
60.124000 7.227000 388.416000
60.603000 7.231000 388.627000
61.120000 7.239000 389.074000
61.615000 7.245000 389.380000
62.138000 7.254000 389.857000
62.642000 7.260000 390.208000
63.188000 7.272000 390.817000
63.684000 7.277000 391.104000
64.260000 7.291000 391.876000
64.781000 7.300000 392.308000
65.355000 7.313000 393.052000
37.152000 7.719000 390.729000
37.575000 7.714000 390.461000
37.981000 7.705000 390.027000
38.399000 7.699000 389.731000
38.812000 7.692000 389.382000
39.238000 7.688000 389.172000
39.642000 7.680000 388.753000
40.072000 7.677000 388.588000
40.490000 7.671000 388.319000
40.909000 7.666000 388.063000
41.323000 7.660000 387.772000
41.754000 7.658000 387.638000
42.173000 7.653000 387.392000
42.602000 7.650000 387.257000
43.024000 7.646000 387.050000
43.451000 7.643000 386.897000
43.873000 7.639000 386.697000
44.307000 7.637000 386.608000
44.724000 7.633000 386.376000
45.165000 7.632000 386.353000
45.588000 7.629000 386.176000
46.029000 7.629000 386.159000
46.456000 7.626000 386.024000
46.891000 7.625000 385.955000
47.324000 7.623000 385.875000
47.761000 7.622000 385.820000
48.196000 7.621000 385.760000
48.637000 7.620000 385.746000
49.072000 7.619000 385.682000
49.514000 7.619000 385.673000
49.946000 7.617000 385.589000
50.393000 7.618000 385.622000
50.836000 7.618000 385.624000
51.281000 7.618000 385.639000
51.724000 7.618000 385.644000
52.172000 7.619000 385.683000
52.624000 7.620000 385.748000
53.079000 7.622000 385.832000
53.529000 7.623000 385.888000
53.991000 7.626000 386.023000
54.446000 7.627000 386.101000
54.908000 7.630000 386.238000
55.369000 7.632000 386.356000
55.831000 7.635000 386.482000
56.304000 7.639000 386.687000
56.773000 7.642000 386.858000
57.245000 7.646000 387.041000
57.717000 7.650000 387.228000
58.193000 7.654000 387.439000
58.666000 7.657000 387.619000
59.163000 7.664000 387.962000
59.631000 7.667000 388.109000
60.136000 7.675000 388.494000
60.616000 7.679000 388.713000
61.124000 7.687000 389.101000
61.625000 7.693000 389.446000
62.143000 7.702000 389.891000
62.652000 7.710000 390.271000
63.194000 7.721000 390.852000
63.704000 7.729000 391.231000
64.277000 7.744000 391.981000
64.797000 7.752000 392.407000
65.384000 7.768000 393.224000
37.157000 8.169000 390.780000
37.578000 8.163000 390.499000
37.987000 8.154000 390.088000
38.407000 8.148000 389.807000
38.822000 8.141000 389.483000
39.248000 8.137000 389.270000
39.652000 8.128000 388.849000
40.083000 8.125000 388.701000
40.499000 8.119000 388.404000
40.916000 8.113000 388.128000
41.329000 8.107000 387.823000
41.759000 8.104000 387.684000
42.175000 8.098000 387.414000
42.606000 8.096000 387.292000
43.030000 8.092000 387.099000
43.456000 8.088000 386.937000
43.880000 8.084000 386.759000
44.314000 8.083000 386.668000
44.734000 8.078000 386.461000
45.174000 8.078000 386.428000
45.594000 8.073000 386.230000
46.038000 8.074000 386.238000
46.462000 8.070000 386.071000
46.897000 8.069000 386.001000
47.330000 8.067000 385.923000
47.767000 8.066000 385.868000
48.202000 8.065000 385.806000
48.643000 8.064000 385.792000
49.083000 8.064000 385.764000
49.521000 8.063000 385.728000
49.954000 8.061000 385.651000
50.404000 8.062000 385.703000
50.847000 8.062000 385.707000
51.292000 8.063000 385.722000
51.732000 8.062000 385.701000
52.184000 8.064000 385.766000
52.630000 8.064000 385.794000
53.091000 8.067000 385.919000
53.540000 8.068000 385.963000
54.005000 8.071000 386.118000
54.457000 8.072000 386.178000
54.920000 8.075000 386.318000
55.381000 8.078000 386.441000
55.843000 8.080000 386.564000
56.311000 8.084000 386.730000
56.782000 8.088000 386.915000
57.252000 8.091000 387.087000
57.723000 8.095000 387.267000
58.207000 8.101000 387.531000
58.676000 8.104000 387.689000
59.170000 8.111000 388.010000
59.637000 8.114000 388.150000
60.152000 8.123000 388.596000
60.636000 8.128000 388.841000
61.142000 8.136000 389.214000
61.636000 8.142000 389.513000
62.154000 8.151000 389.956000
62.661000 8.159000 390.324000
63.210000 8.172000 390.951000
63.720000 8.180000 391.329000
64.290000 8.195000 392.059000
64.817000 8.205000 392.527000
65.414000 8.223000 393.404000
37.171000 8.621000 390.935000
37.588000 8.613000 390.604000
37.997000 8.604000 390.191000
38.419000 8.598000 389.928000
38.830000 8.590000 389.561000
39.252000 8.585000 389.313000
39.659000 8.576000 388.914000
40.091000 8.573000 388.777000
40.503000 8.566000 388.445000
40.923000 8.560000 388.203000
41.338000 8.554000 387.909000
41.768000 8.551000 387.763000
42.183000 8.545000 387.490000
42.612000 8.542000 387.346000
43.033000 8.537000 387.129000
43.463000 8.534000 386.998000
43.890000 8.531000 386.846000
44.319000 8.528000 386.717000
44.743000 8.524000 386.539000
45.183000 8.523000 386.508000
45.603000 8.519000 386.306000
46.047000 8.519000 386.311000
46.466000 8.514000 386.108000
46.905000 8.513000 386.074000
47.337000 8.511000 385.975000
47.775000 8.510000 385.935000
48.206000 8.508000 385.842000
48.648000 8.508000 385.831000
49.087000 8.507000 385.797000
49.527000 8.507000 385.777000
49.960000 8.505000 385.699000
50.413000 8.507000 385.776000
50.854000 8.506000 385.757000
51.302000 8.507000 385.799000
51.743000 8.507000 385.785000
52.195000 8.509000 385.852000
52.642000 8.509000 385.880000
53.104000 8.512000 386.018000
53.550000 8.513000 386.036000
54.010000 8.515000 386.159000
54.469000 8.518000 386.270000
54.932000 8.521000 386.404000
55.391000 8.523000 386.509000
55.856000 8.526000 386.655000
56.325000 8.530000 386.826000
56.788000 8.533000 386.956000
57.259000 8.537000 387.140000
57.734000 8.541000 387.342000
58.219000 8.547000 387.607000
58.690000 8.551000 387.779000
59.186000 8.558000 388.110000
59.653000 8.562000 388.252000
60.166000 8.571000 388.686000
60.654000 8.577000 388.953000
61.160000 8.585000 389.334000
61.657000 8.592000 389.648000
62.168000 8.601000 390.047000
62.672000 8.609000 390.396000
63.225000 8.623000 391.045000
63.742000 8.632000 391.459000
64.302000 8.647000 392.137000
64.839000 8.659000 392.660000
65.436000 8.678000 393.539000
36.773000 9.082000 391.472000
37.180000 9.072000 391.029000
37.598000 9.064000 390.707000
38.005000 9.054000 390.275000
38.424000 9.047000 389.982000
38.840000 9.040000 389.665000
39.258000 9.033000 389.368000
39.663000 9.024000 388.952000
40.103000 9.022000 388.891000
40.513000 9.014000 388.540000
40.936000 9.009000 388.324000
41.353000 9.003000 388.050000
41.779000 8.998000 387.865000
42.195000 8.992000 387.599000
42.623000 8.989000 387.442000
43.043000 8.983000 387.217000
43.473000 8.980000 387.085000
43.900000 8.977000 386.934000
44.326000 8.973000 386.776000
44.751000 8.969000 386.607000
45.187000 8.968000 386.538000
45.609000 8.963000 386.354000
46.053000 8.964000 386.363000
46.474000 8.959000 386.169000
46.914000 8.959000 386.148000
47.346000 8.956000 386.053000
47.784000 8.955000 386.012000
48.218000 8.954000 385.937000
48.658000 8.953000 385.909000
49.097000 8.952000 385.877000
49.537000 8.952000 385.857000
49.975000 8.951000 385.813000
50.425000 8.952000 385.865000
50.865000 8.951000 385.841000
51.315000 8.953000 385.894000
51.758000 8.953000 385.894000
52.206000 8.954000 385.934000
52.657000 8.955000 385.986000
53.112000 8.957000 386.077000
53.561000 8.958000 386.115000
54.024000 8.961000 386.255000
54.477000 8.963000 386.320000
54.944000 8.966000 386.486000
55.405000 8.969000 386.607000
55.870000 8.973000 386.756000
56.337000 8.976000 386.911000
56.801000 8.979000 387.047000
57.271000 8.983000 387.221000
57.745000 8.988000 387.416000
58.233000 8.995000 387.704000
58.700000 8.998000 387.847000
59.201000 9.006000 388.212000
59.668000 9.010000 388.351000
60.173000 9.019000 388.734000
60.663000 9.025000 389.010000
61.173000 9.034000 389.416000
61.674000 9.042000 389.753000
62.192000 9.052000 390.194000
62.689000 9.059000 390.501000
63.242000 9.075000 391.151000
63.764000 9.085000 391.597000
64.333000 9.102000 392.324000
64.858000 9.112000 392.776000
65.453000 9.132000 393.639000
36.782000 9.534000 391.570000
37.190000 9.523000 391.132000
37.608000 9.515000 390.803000
38.015000 9.505000 390.375000
38.434000 9.498000 390.082000
38.852000 9.490000 389.780000
39.268000 9.483000 389.463000
39.678000 9.474000 389.104000
40.110000 9.470000 388.962000
40.521000 9.462000 388.617000
40.945000 9.457000 388.407000
41.361000 9.450000 388.123000
41.791000 9.446000 387.976000
42.206000 9.440000 387.702000
42.632000 9.435000 387.522000
43.054000 9.430000 387.320000
43.483000 9.427000 387.179000
43.908000 9.423000 387.009000
44.336000 9.419000 386.861000
44.762000 9.416000 386.707000
45.194000 9.413000 386.602000
45.619000 9.409000 386.438000
46.058000 9.408000 386.402000
46.483000 9.404000 386.248000
46.922000 9.403000 386.213000
47.359000 9.402000 386.159000
47.793000 9.400000 386.085000
48.231000 9.399000 386.035000
48.668000 9.398000 385.990000
49.110000 9.398000 385.977000
49.548000 9.397000 385.942000
49.988000 9.396000 385.911000
50.432000 9.396000 385.924000
50.877000 9.397000 385.933000
51.322000 9.397000 385.951000
51.772000 9.398000 385.999000
52.221000 9.399000 386.043000
52.669000 9.400000 386.075000
53.126000 9.403000 386.177000
53.577000 9.404000 386.231000
54.039000 9.407000 386.364000
54.485000 9.408000 386.379000
54.955000 9.412000 386.567000
55.420000 9.416000 386.712000
55.877000 9.418000 386.804000
56.348000 9.422000 386.986000
56.815000 9.426000 387.140000
57.283000 9.430000 387.300000
57.757000 9.435000 387.494000
58.246000 9.442000 387.791000
58.713000 9.445000 387.932000
59.219000 9.455000 388.332000
59.690000 9.459000 388.491000
60.194000 9.468000 388.866000
60.676000 9.474000 389.096000
61.198000 9.485000 389.573000
61.691000 9.492000 389.864000
62.218000 9.504000 390.357000
62.702000 9.510000 390.584000
63.267000 9.527000 391.301000
63.796000 9.539000 391.794000
64.362000 9.557000 392.500000
64.891000 9.568000 392.975000
65.492000 9.590000 393.874000
37.208000 9.977000 391.319000
37.625000 9.969000 390.980000
38.029000 9.957000 390.518000
38.451000 9.950000 390.255000
38.864000 9.941000 389.902000
39.283000 9.934000 389.613000
39.695000 9.925000 389.272000
40.123000 9.920000 389.081000
40.533000 9.911000 388.729000
40.956000 9.906000 388.513000
41.374000 9.899000 388.248000
41.804000 9.895000 388.102000
42.221000 9.888000 387.835000
42.646000 9.884000 387.656000
43.068000 9.878000 387.442000
43.493000 9.874000 387.266000
43.923000 9.870000 387.135000
44.349000 9.867000 386.979000
44.776000 9.863000 386.823000
45.208000 9.860000 386.725000
45.633000 9.856000 386.559000
46.070000 9.854000 386.507000
46.497000 9.851000 386.364000
46.937000 9.850000 386.332000
47.372000 9.848000 386.265000
47.805000 9.846000 386.175000
48.244000 9.845000 386.140000
48.679000 9.843000 386.075000
49.125000 9.844000 386.098000
49.556000 9.842000 386.000000
50.002000 9.842000 386.020000
50.444000 9.842000 386.013000
50.891000 9.843000 386.043000
51.336000 9.843000 386.054000
51.785000 9.844000 386.100000
52.235000 9.845000 386.149000
52.678000 9.845000 386.140000
53.139000 9.848000 386.272000
53.591000 9.850000 386.334000
54.054000 9.854000 386.474000
54.500000 9.854000 386.490000
54.962000 9.857000 386.614000
55.432000 9.862000 386.800000
55.892000 9.865000 386.905000
56.363000 9.869000 387.088000
56.832000 9.874000 387.254000
57.303000 9.878000 387.434000
57.774000 9.883000 387.610000
58.265000 9.890000 387.913000
58.727000 9.893000 388.027000
59.233000 9.903000 388.422000
59.714000 9.909000 388.650000
60.215000 9.918000 389.001000
60.702000 9.925000 389.264000
61.220000 9.936000 389.711000
61.712000 9.943000 389.997000
62.239000 9.956000 390.490000
62.729000 9.963000 390.753000
63.287000 9.980000 391.430000
63.819000 9.993000 391.936000
64.383000 10.010000 392.626000
64.925000 10.025000 393.181000
65.532000 10.048000 394.114000
37.222000 10.430000 391.463000
37.635000 10.420000 391.086000
38.041000 10.409000 390.645000
38.466000 10.402000 390.405000
38.878000 10.392000 390.038000
39.294000 10.384000 389.727000
39.709000 10.376000 389.406000
40.134000 10.370000 389.191000
40.542000 10.360000 388.820000
40.969000 10.355000 388.636000
41.386000 10.348000 388.361000
41.814000 10.343000 388.198000
42.230000 10.336000 387.917000
42.659000 10.332000 387.773000
43.079000 10.326000 387.540000
43.508000 10.322000 387.399000
43.934000 10.318000 387.236000
44.361000 10.314000 387.081000
44.790000 10.310000 386.950000
45.222000 10.307000 386.841000
45.646000 10.303000 386.670000
46.084000 10.301000 386.625000
46.511000 10.298000 386.478000
46.953000 10.297000 386.467000
47.385000 10.295000 386.373000
47.818000 10.292000 386.283000
48.257000 10.291000 386.246000
48.696000 10.290000 386.209000
49.143000 10.291000 386.236000
49.573000 10.288000 386.130000
50.022000 10.289000 386.175000
50.460000 10.288000 386.134000
50.908000 10.289000 386.169000
51.350000 10.289000 386.160000
51.797000 10.290000 386.185000
52.251000 10.292000 386.265000
52.691000 10.291000 386.240000
53.153000 10.295000 386.370000
53.604000 10.296000 386.427000
54.062000 10.299000 386.527000
54.517000 10.301000 386.609000
54.976000 10.304000 386.716000
55.450000 10.309000 386.919000
55.912000 10.313000 387.045000
56.384000 10.318000 387.231000
56.851000 10.322000 387.386000
57.333000 10.328000 387.636000
57.795000 10.331000 387.752000
58.290000 10.340000 388.082000
58.755000 10.344000 388.210000
59.252000 10.353000 388.543000
59.726000 10.357000 388.729000
60.238000 10.369000 389.154000
60.725000 10.376000 389.410000
61.240000 10.387000 389.839000
61.735000 10.395000 390.137000
62.269000 10.409000 390.680000
62.762000 10.417000 390.954000
63.313000 10.434000 391.589000
63.833000 10.445000 392.020000
64.421000 10.468000 392.859000
64.950000 10.480000 393.330000
65.555000 10.505000 394.252000
66.135000 10.525000 395.012000
37.239000 10.885000 391.646000
37.652000 10.874000 391.263000
38.055000 10.861000 390.789000
38.480000 10.855000 390.552000
38.891000 10.844000 390.169000
39.309000 10.836000 389.873000
39.723000 10.827000 389.545000
40.146000 10.820000 389.305000
40.552000 10.809000 388.916000
40.983000 10.805000 388.767000
41.403000 10.798000 388.516000
41.828000 10.793000 388.328000
42.244000 10.785000 388.050000
42.674000 10.781000 387.908000
43.091000 10.774000 387.655000
43.528000 10.772000 387.579000
43.950000 10.766000 387.375000
44.371000 10.760000 387.167000
44.808000 10.759000 387.100000
45.231000 10.754000 386.920000
45.662000 10.750000 386.807000
46.100000 10.749000 386.755000
46.530000 10.746000 386.634000
46.971000 10.745000 386.610000
47.397000 10.741000 386.467000
47.832000 10.739000 386.398000
48.269000 10.737000 386.340000
48.712000 10.737000 386.336000
49.157000 10.738000 386.347000
49.589000 10.735000 386.262000
50.036000 10.736000 386.284000
50.478000 10.736000 386.270000
50.924000 10.736000 386.288000
51.369000 10.736000 386.303000
51.815000 10.737000 386.319000
52.267000 10.739000 386.382000
52.713000 10.739000 386.402000
53.170000 10.742000 386.495000
53.627000 10.745000 386.594000
54.084000 10.747000 386.686000
54.545000 10.750000 386.808000
54.998000 10.752000 386.867000
55.469000 10.757000 387.052000
55.936000 10.762000 387.207000
56.403000 10.766000 387.367000
56.865000 10.769000 387.484000
57.352000 10.777000 387.765000
57.812000 10.780000 387.868000
58.307000 10.789000 388.195000
58.781000 10.794000 388.384000
59.274000 10.803000 388.693000
59.754000 10.809000 388.912000
60.263000 10.820000 389.312000
60.752000 10.828000 389.583000
61.270000 10.840000 390.030000
61.763000 10.848000 390.316000
62.303000 10.864000 390.892000
62.800000 10.872000 391.193000
63.359000 10.891000 391.872000
63.876000 10.903000 392.282000
64.456000 10.925000 393.076000
64.981000 10.937000 393.523000
65.595000 10.964000 394.496000
66.156000 10.982000 395.142000
37.667000 11.328000 391.416000
38.073000 11.315000 390.976000
38.495000 11.307000 390.696000
38.904000 11.296000 390.307000
39.324000 11.288000 390.025000
39.740000 11.279000 389.712000
40.159000 11.271000 389.436000
40.571000 11.261000 389.097000
41.001000 11.256000 388.936000
41.420000 11.249000 388.682000
41.844000 11.243000 388.473000
42.261000 11.235000 388.202000
42.689000 11.230000 388.043000
43.105000 11.223000 387.776000
43.543000 11.221000 387.711000
43.961000 11.214000 387.473000
44.389000 11.210000 387.324000
44.821000 11.206000 387.217000
45.245000 11.201000 387.038000
45.680000 11.199000 386.958000
46.114000 11.196000 386.871000
46.546000 11.194000 386.769000
46.985000 11.192000 386.725000
47.410000 11.188000 386.575000
47.847000 11.186000 386.514000
48.281000 11.184000 386.439000
48.723000 11.183000 386.423000
49.167000 11.184000 386.425000
49.604000 11.182000 386.376000
50.050000 11.183000 386.394000
50.494000 11.183000 386.398000
50.940000 11.183000 386.416000
51.385000 11.183000 386.423000
51.829000 11.184000 386.425000
52.279000 11.185000 386.470000
52.736000 11.188000 386.568000
53.187000 11.189000 386.618000
53.648000 11.193000 386.746000
54.100000 11.194000 386.803000
54.561000 11.198000 386.920000
55.020000 11.201000 387.024000
55.491000 11.206000 387.210000
55.954000 11.210000 387.335000
56.423000 11.215000 387.504000
56.884000 11.218000 387.613000
57.372000 11.226000 387.901000
57.832000 11.229000 387.997000
58.328000 11.239000 388.335000
58.799000 11.244000 388.498000
59.299000 11.254000 388.852000
59.789000 11.262000 389.136000
60.292000 11.273000 389.502000
60.781000 11.280000 389.768000
61.305000 11.294000 390.257000
61.795000 11.302000 390.519000
62.330000 11.318000 391.060000
62.838000 11.328000 391.429000
63.400000 11.349000 392.127000
63.917000 11.360000 392.535000
64.507000 11.385000 393.385000
65.042000 11.400000 393.890000
65.668000 11.430000 394.937000
37.681000 11.782000 391.566000
38.092000 11.770000 391.171000
38.517000 11.763000 390.927000
38.923000 11.750000 390.489000
39.345000 11.742000 390.231000
39.760000 11.732000 389.908000
40.178000 11.723000 389.617000
40.590000 11.713000 389.278000
41.019000 11.708000 389.106000
41.435000 11.699000 388.816000
41.862000 11.694000 388.637000
42.281000 11.686000 388.387000
42.706000 11.680000 388.194000
43.123000 11.673000 387.938000
43.559000 11.670000 387.857000
43.976000 11.663000 387.609000
44.411000 11.660000 387.516000
44.836000 11.655000 387.347000
45.265000 11.651000 387.208000
45.702000 11.649000 387.143000
46.131000 11.645000 387.012000
46.560000 11.641000 386.884000
46.996000 11.639000 386.822000
47.428000 11.636000 386.716000
47.864000 11.634000 386.656000
48.299000 11.632000 386.586000
48.738000 11.631000 386.541000
49.183000 11.631000 386.556000
49.620000 11.630000 386.502000
50.066000 11.630000 386.513000
50.508000 11.630000 386.506000
50.957000 11.631000 386.543000
51.398000 11.630000 386.520000
51.849000 11.632000 386.577000
52.299000 11.633000 386.620000
52.759000 11.637000 386.738000
53.208000 11.638000 386.771000
53.669000 11.641000 386.897000
54.119000 11.643000 386.934000
54.584000 11.647000 387.079000
55.042000 11.650000 387.178000
55.517000 11.656000 387.390000
55.974000 11.659000 387.475000
56.452000 11.666000 387.700000
56.913000 11.669000 387.811000
57.398000 11.677000 388.076000
57.861000 11.681000 388.196000
58.355000 11.690000 388.517000
58.833000 11.696000 388.723000
59.329000 11.706000 389.053000
59.820000 11.715000 389.340000
60.327000 11.727000 389.724000
60.811000 11.734000 389.959000
61.327000 11.747000 390.396000
61.821000 11.755000 390.685000
62.366000 11.774000 391.286000
62.892000 11.788000 391.764000
63.428000 11.804000 392.301000
63.965000 11.820000 392.831000
64.560000 11.846000 393.706000
65.112000 11.865000 394.310000
65.743000 11.897000 395.384000
71.510000 12.344000 410.239000
72.067000 12.359000 410.729000
72.624000 12.373000 411.213000
73.205000 12.391000 411.823000
38.119000 12.228000 391.443000
38.535000 12.217000 391.105000
38.940000 12.203000 390.662000
39.361000 12.195000 390.392000
39.776000 12.185000 390.066000
40.193000 12.175000 389.767000
40.610000 12.166000 389.467000
41.036000 12.160000 389.268000
41.451000 12.151000 388.972000
41.879000 12.145000 388.798000
42.296000 12.137000 388.526000
42.725000 12.132000 388.366000
43.145000 12.124000 388.137000
43.580000 12.122000 388.044000
43.997000 12.114000 387.789000
44.433000 12.111000 387.712000
44.854000 12.105000 387.503000
45.286000 12.101000 387.391000
45.717000 12.097000 387.269000
46.148000 12.094000 387.159000
46.578000 12.090000 387.038000
47.015000 12.088000 386.979000
47.447000 12.085000 386.871000
47.885000 12.084000 386.827000
48.320000 12.081000 386.752000
48.765000 12.081000 386.756000
49.203000 12.080000 386.713000
49.642000 12.079000 386.668000
50.086000 12.079000 386.674000
50.531000 12.079000 386.680000
50.978000 12.080000 386.701000
51.421000 12.079000 386.693000
51.876000 12.082000 386.773000
52.324000 12.083000 386.807000
52.780000 12.085000 386.889000
53.231000 12.087000 386.938000
53.697000 12.092000 387.098000
54.143000 12.092000 387.107000
54.612000 12.098000 387.281000
55.065000 12.099000 387.336000
55.543000 12.107000 387.571000
56.000000 12.109000 387.657000
56.478000 12.116000 387.882000
56.941000 12.120000 388.001000
57.424000 12.128000 388.255000
57.885000 12.131000 388.357000
58.382000 12.142000 388.697000
58.869000 12.150000 388.964000
59.362000 12.160000 389.268000
59.851000 12.168000 389.542000
60.360000 12.181000 389.942000
60.847000 12.189000 390.194000
61.360000 12.202000 390.608000
61.856000 12.211000 390.905000
62.405000 12.230000 391.531000
62.933000 12.246000 392.024000
63.484000 12.265000 392.648000
64.012000 12.280000 393.120000
64.611000 12.308000 394.018000
65.163000 12.327000 394.624000
65.792000 12.360000 395.679000
70.912000 12.792000 409.504000
71.444000 12.803000 409.861000
71.992000 12.817000 410.302000
72.539000 12.830000 410.730000
73.098000 12.845000 411.219000
73.637000 12.857000 411.593000
74.181000 12.870000 411.989000
38.144000 12.685000 391.699000
38.555000 12.673000 391.312000
38.964000 12.660000 390.901000
39.386000 12.651000 390.639000
39.797000 12.639000 390.266000
40.213000 12.629000 389.960000
40.627000 12.619000 389.633000
41.054000 12.612000 389.442000
41.472000 12.603000 389.166000
41.899000 12.598000 388.986000
42.318000 12.589000 388.728000
42.745000 12.584000 388.555000
43.169000 12.577000 388.350000
43.600000 12.573000 388.221000
44.014000 12.564000 387.938000
44.453000 12.562000 387.881000
44.874000 12.555000 387.675000
45.312000 12.553000 387.613000
45.740000 12.549000 387.470000
46.172000 12.545000 387.361000
46.599000 12.540000 387.210000
47.038000 12.539000 387.167000
47.466000 12.534000 387.029000
47.912000 12.535000 387.041000
48.346000 12.532000 386.956000
48.796000 12.533000 387.005000
49.226000 12.530000 386.892000
49.672000 12.530000 386.908000
50.115000 12.530000 386.894000
50.561000 12.530000 386.908000
51.003000 12.530000 386.892000
51.449000 12.530000 386.901000
51.899000 12.532000 386.950000
52.352000 12.534000 387.008000
52.810000 12.537000 387.112000
53.257000 12.537000 387.129000
53.723000 12.542000 387.283000
54.167000 12.542000 387.280000
54.635000 12.548000 387.447000
55.093000 12.551000 387.538000
55.570000 12.558000 387.762000
56.028000 12.561000 387.850000
56.507000 12.568000 388.080000
56.968000 12.572000 388.185000
57.452000 12.580000 388.440000
57.919000 12.585000 388.581000
58.415000 12.595000 388.911000
58.898000 12.603000 389.157000
59.402000 12.615000 389.531000
59.881000 12.622000 389.737000
60.397000 12.636000 390.176000
60.881000 12.644000 390.410000
61.414000 12.661000 390.948000
61.898000 12.668000 391.171000
62.451000 12.689000 391.820000
62.974000 12.704000 392.276000
63.543000 12.728000 393.008000
64.071000 12.743000 393.479000
64.659000 12.770000 394.312000
65.233000 12.794000 395.048000
70.849000 13.250000 409.139000
71.380000 13.262000 409.494000
71.922000 13.275000 409.898000
72.457000 13.287000 410.267000
73.007000 13.301000 410.710000
73.537000 13.312000 411.037000
74.097000 13.327000 411.522000
38.988000 13.117000 391.141000
39.409000 13.107000 390.862000
39.818000 13.094000 390.473000
40.239000 13.085000 390.213000
40.653000 13.074000 389.880000
41.077000 13.067000 389.661000
41.495000 13.058000 389.382000
41.920000 13.051000 389.174000
42.340000 13.043000 388.934000
42.766000 13.036000 388.742000
43.189000 13.029000 388.530000
43.618000 13.024000 388.377000
44.033000 13.015000 388.107000
44.475000 13.014000 388.073000
44.896000 13.007000 387.862000
45.332000 13.004000 387.787000
45.761000 12.999000 387.647000
46.194000 12.996000 387.546000
46.621000 12.991000 387.395000
47.062000 12.990000 387.359000
47.493000 12.986000 387.247000
47.937000 12.986000 387.247000
48.366000 12.982000 387.122000
48.819000 12.984000 387.190000
49.244000 12.979000 387.031000
49.700000 12.982000 387.119000
50.136000 12.980000 387.055000
50.586000 12.981000 387.096000
51.026000 12.980000 387.068000
51.472000 12.980000 387.080000
51.925000 12.982000 387.138000
52.378000 12.985000 387.207000
52.836000 12.988000 387.300000
53.279000 12.987000 387.289000
53.748000 12.993000 387.465000
54.198000 12.994000 387.501000
54.662000 12.999000 387.635000
55.120000 13.002000 387.727000
55.591000 13.008000 387.905000
56.055000 13.012000 388.036000
56.534000 13.020000 388.262000
56.995000 13.024000 388.367000
57.481000 13.033000 388.639000
57.960000 13.040000 388.857000
58.451000 13.050000 389.154000
58.933000 13.058000 389.388000
59.438000 13.070000 389.764000
59.913000 13.077000 389.946000
60.434000 13.092000 390.417000
60.925000 13.102000 390.694000
61.452000 13.118000 391.190000
61.948000 13.128000 391.486000
62.496000 13.149000 392.106000
63.015000 13.163000 392.533000
63.600000 13.191000 393.364000
64.130000 13.207000 393.847000
64.733000 13.238000 394.765000
65.310000 13.263000 395.510000
70.792000 13.709000 408.814000
71.323000 13.721000 409.162000
71.865000 13.735000 409.575000
72.395000 13.746000 409.914000
72.932000 13.759000 410.286000
73.469000 13.771000 410.653000
74.026000 13.787000 411.130000
74.571000 13.800000 411.534000
39.839000 13.550000 390.686000
40.265000 13.542000 390.464000
40.680000 13.531000 390.139000
41.101000 13.522000 389.886000
41.515000 13.511000 389.567000
41.942000 13.505000 389.385000
42.363000 13.496000 389.142000
42.786000 13.489000 388.926000
43.216000 13.484000 388.772000
43.640000 13.477000 388.577000
44.059000 13.469000 388.339000
44.496000 13.466000 388.261000
44.918000 13.459000 388.052000
45.356000 13.456000 387.987000
45.784000 13.451000 387.842000
46.217000 13.448000 387.734000
46.646000 13.443000 387.602000
47.081000 13.440000 387.521000
47.520000 13.438000 387.468000
47.962000 13.437000 387.443000
48.393000 13.434000 387.334000
48.843000 13.435000 387.374000
49.270000 13.430000 387.237000
49.723000 13.432000 387.299000
50.158000 13.430000 387.229000
50.609000 13.432000 387.275000
51.051000 13.431000 387.255000
51.496000 13.431000 387.258000
51.952000 13.434000 387.342000
52.400000 13.435000 387.369000
52.858000 13.438000 387.461000
53.309000 13.440000 387.506000
53.775000 13.445000 387.656000
54.230000 13.447000 387.732000
54.688000 13.451000 387.823000
55.152000 13.455000 387.952000
55.621000 13.461000 388.116000
56.084000 13.465000 388.236000
56.567000 13.474000 388.488000
57.034000 13.479000 388.635000
57.514000 13.487000 388.863000
58.003000 13.497000 389.148000
58.497000 13.507000 389.461000
58.969000 13.513000 389.626000
59.481000 13.528000 390.048000
59.960000 13.535000 390.250000
60.482000 13.551000 390.726000
60.980000 13.562000 391.046000
61.492000 13.576000 391.446000
62.004000 13.590000 391.838000
62.563000 13.614000 392.527000
63.070000 13.626000 392.874000
63.676000 13.659000 393.832000
64.203000 13.675000 394.290000
64.810000 13.708000 395.232000
65.386000 13.733000 395.972000
70.207000 14.155000 408.141000
70.737000 14.168000 408.494000
71.259000 14.178000 408.798000
71.811000 14.194000 409.266000
72.339000 14.206000 409.594000
72.866000 14.217000 409.914000
73.400000 14.229000 410.272000
73.946000 14.244000 410.687000
74.491000 14.258000 411.091000
75.056000 14.275000 411.599000
75.604000 14.290000 412.013000
39.863000 14.007000 390.915000
40.290000 13.999000 390.707000
40.704000 13.987000 390.373000
41.124000 13.978000 390.103000
41.540000 13.967000 389.801000
41.969000 13.961000 389.631000
42.388000 13.951000 389.373000
42.814000 13.944000 389.176000
43.241000 13.938000 388.999000
43.659000 13.929000 388.745000
44.086000 13.923000 388.579000
44.520000 13.919000 388.469000
44.942000 13.912000 388.259000
45.380000 13.909000 388.193000
45.807000 13.904000 388.036000
46.242000 13.900000 387.948000
46.674000 13.896000 387.838000
47.108000 13.893000 387.739000
47.551000 13.892000 387.722000
47.984000 13.889000 387.622000
48.420000 13.886000 387.554000
48.864000 13.886000 387.540000
49.304000 13.884000 387.501000
49.746000 13.884000 387.483000
50.187000 13.883000 387.452000
50.632000 13.883000 387.453000
51.079000 13.883000 387.467000
51.527000 13.884000 387.487000
51.981000 13.886000 387.556000
52.431000 13.888000 387.593000
52.883000 13.890000 387.644000
53.342000 13.893000 387.745000
53.801000 13.897000 387.846000
54.264000 13.901000 387.973000
54.718000 13.903000 388.034000
55.188000 13.910000 388.203000
55.657000 13.915000 388.364000
56.122000 13.920000 388.496000
56.602000 13.928000 388.730000
57.077000 13.936000 388.928000
57.555000 13.943000 389.140000
58.039000 13.952000 389.385000
58.537000 13.964000 389.724000
59.005000 13.969000 389.865000
59.524000 13.986000 390.332000
60.008000 13.994000 390.565000
60.528000 14.011000 391.023000
61.024000 14.022000 391.328000
61.548000 14.038000 391.800000
62.064000 14.053000 392.218000
62.623000 14.078000 392.899000
63.138000 14.092000 393.300000
63.742000 14.126000 394.242000
64.303000 14.150000 394.904000
64.904000 14.182000 395.804000
70.173000 14.617000 407.941000
70.706000 14.630000 408.317000
71.216000 14.639000 408.552000
71.753000 14.652000 408.936000
72.276000 14.663000 409.242000
72.808000 14.676000 409.591000
73.341000 14.688000 409.940000
73.880000 14.702000 410.317000
74.426000 14.717000 410.732000
74.986000 14.734000 411.214000
75.521000 14.746000 411.558000
76.060000 14.759000 411.921000
76.630000 14.778000 412.438000
77.169000 14.791000 412.793000
77.641000 14.790000 412.782000
78.153000 14.797000 412.980000
39.894000 14.467000 391.222000
40.320000 14.459000 390.993000
40.735000 14.446000 390.667000
41.154000 14.436000 390.394000
41.569000 14.425000 390.082000
41.998000 14.418000 389.899000
42.413000 14.407000 389.599000
42.844000 14.402000 389.452000
43.265000 14.393000 389.220000
43.682000 14.383000 388.947000
44.116000 14.379000 388.842000
44.547000 14.374000 388.707000
44.971000 14.367000 388.514000
45.407000 14.364000 388.428000
45.832000 14.357000 388.244000
46.270000 14.354000 388.179000
46.702000 14.350000 388.064000
47.136000 14.347000 387.973000
47.580000 14.346000 387.957000
48.009000 14.341000 387.827000
48.454000 14.341000 387.820000
48.889000 14.338000 387.745000
49.335000 14.338000 387.747000
49.776000 14.337000 387.714000
50.220000 14.337000 387.708000
50.664000 14.337000 387.694000
51.112000 14.337000 387.720000
51.560000 14.338000 387.740000
52.007000 14.339000 387.753000
52.466000 14.342000 387.852000
52.911000 14.342000 387.849000
53.378000 14.348000 388.006000
53.831000 14.350000 388.063000
54.297000 14.355000 388.206000
54.757000 14.359000 388.310000
55.221000 14.364000 388.435000
55.695000 14.371000 388.629000
56.161000 14.376000 388.770000
56.639000 14.384000 388.987000
57.119000 14.393000 389.209000
57.602000 14.402000 389.455000
58.073000 14.408000 389.618000
58.579000 14.422000 390.004000
59.048000 14.427000 390.146000
59.564000 14.444000 390.594000
60.054000 14.454000 390.863000
60.579000 14.472000 391.353000
61.085000 14.485000 391.716000
61.614000 14.504000 392.221000
62.125000 14.518000 392.608000
62.680000 14.542000 393.256000
63.211000 14.561000 393.756000
63.808000 14.594000 394.651000
64.394000 14.624000 395.464000
64.977000 14.653000 396.254000
70.144000 15.079000 407.774000
70.670000 15.091000 408.107000
71.177000 15.099000 408.325000
71.703000 15.112000 408.653000
72.223000 15.122000 408.938000
72.753000 15.135000 409.279000
73.281000 15.147000 409.605000
73.825000 15.162000 410.014000
74.369000 15.177000 410.418000
74.910000 15.191000 410.798000
75.440000 15.203000 411.116000
75.982000 15.217000 411.495000
76.537000 15.233000 411.939000
77.084000 15.248000 412.337000
77.657000 15.267000 412.864000
78.194000 15.280000 413.199000
78.790000 15.303000 413.838000
79.421000 15.333000 414.650000
39.928000 14.929000 391.554000
40.350000 14.919000 391.288000
40.764000 14.906000 390.951000
41.184000 14.895000 390.679000
41.599000 14.883000 390.363000
42.023000 14.875000 390.130000
42.441000 14.864000 389.856000
42.877000 14.860000 389.753000
43.290000 14.848000 389.444000
43.716000 14.841000 389.255000
44.147000 14.836000 389.115000
44.575000 14.829000 388.944000
45.005000 14.824000 388.807000
45.438000 14.819000 388.686000
45.860000 14.812000 388.483000
46.298000 14.809000 388.420000
46.730000 14.805000 388.301000
47.166000 14.802000 388.220000
47.605000 14.799000 388.160000
48.037000 14.795000 388.053000
48.485000 14.796000 388.075000
48.919000 14.793000 387.982000
49.365000 14.793000 387.983000
49.806000 14.791000 387.945000
50.250000 14.791000 387.940000
50.697000 14.791000 387.945000
51.143000 14.792000 387.953000
51.596000 14.794000 388.006000
52.039000 14.793000 387.989000
52.499000 14.797000 388.099000
52.949000 14.798000 388.129000
53.414000 14.804000 388.270000
53.870000 14.806000 388.343000
54.329000 14.810000 388.437000
54.800000 14.817000 388.615000
55.261000 14.821000 388.717000
55.730000 14.827000 388.878000
56.202000 14.834000 389.054000
56.681000 14.842000 389.274000
57.158000 14.850000 389.475000
57.648000 14.861000 389.770000
58.119000 14.867000 389.927000
58.623000 14.881000 390.300000
59.102000 14.889000 390.503000
59.618000 14.906000 390.944000
60.098000 14.913000 391.151000
60.632000 14.934000 391.695000
61.143000 14.949000 392.087000
61.680000 14.970000 392.642000
62.187000 14.984000 392.999000
62.742000 15.009000 393.649000
63.289000 15.031000 394.239000
63.880000 15.064000 395.097000
64.474000 15.097000 395.958000
69.605000 15.532000 407.361000
70.116000 15.541000 407.610000
70.637000 15.553000 407.915000
71.140000 15.560000 408.113000
71.670000 15.574000 408.462000
72.184000 15.583000 408.717000
72.714000 15.596000 409.060000
73.239000 15.608000 409.371000
73.769000 15.621000 409.705000
74.309000 15.635000 410.087000
74.830000 15.646000 410.360000
75.373000 15.661000 410.752000
75.925000 15.677000 411.185000
76.466000 15.692000 411.558000
77.011000 15.706000 411.943000
77.578000 15.725000 412.444000
78.118000 15.739000 412.796000
78.700000 15.760000 413.364000
79.255000 15.776000 413.784000
79.824000 15.795000 414.269000
80.376000 15.810000 414.664000
39.964000 15.392000 391.903000
40.380000 15.379000 391.575000
40.793000 15.366000 391.228000
41.216000 15.356000 390.976000
41.630000 15.343000 390.653000
42.053000 15.334000 390.415000
42.475000 15.324000 390.171000
42.906000 15.318000 390.012000
43.319000 15.306000 389.706000
43.753000 15.301000 389.584000
44.175000 15.292000 389.358000
44.606000 15.287000 389.216000
45.036000 15.281000 389.071000
45.465000 15.275000 388.918000
45.892000 15.268000 388.751000
46.327000 15.265000 388.662000
46.760000 15.260000 388.549000
47.201000 15.259000 388.510000
47.635000 15.255000 388.404000
48.074000 15.253000 388.347000
48.515000 15.251000 388.313000
48.955000 15.249000 388.265000
49.398000 15.248000 388.242000
49.840000 15.247000 388.211000
50.283000 15.246000 388.191000
50.728000 15.246000 388.188000
51.177000 15.247000 388.213000
51.628000 15.249000 388.253000
52.076000 15.249000 388.263000
52.534000 15.253000 388.356000
52.991000 15.256000 388.440000
53.448000 15.259000 388.519000
53.915000 15.265000 388.664000
54.369000 15.267000 388.722000
54.845000 15.275000 388.930000
55.304000 15.279000 389.021000
55.781000 15.287000 389.231000
56.249000 15.293000 389.377000
56.730000 15.302000 389.610000
57.194000 15.307000 389.724000
57.701000 15.322000 390.129000
58.174000 15.329000 390.290000
58.670000 15.341000 390.611000
59.162000 15.353000 390.902000
59.674000 15.369000 391.316000
60.160000 15.378000 391.549000
60.696000 15.400000 392.112000
61.203000 15.415000 392.473000
61.750000 15.439000 393.084000
62.278000 15.458000 393.573000
62.833000 15.483000 394.216000
63.373000 15.505000 394.764000
63.979000 15.542000 395.708000
64.568000 15.574000 396.533000
69.578000 15.993000 407.201000
70.087000 16.002000 407.440000
70.609000 16.015000 407.752000
71.112000 16.022000 407.952000
71.643000 16.036000 408.309000
72.152000 16.045000 408.536000
72.672000 16.057000 408.826000
73.198000 16.069000 409.138000
73.725000 16.082000 409.460000
74.249000 16.093000 409.753000
74.770000 16.104000 410.029000
75.325000 16.122000 410.491000
75.854000 16.134000 410.802000
76.394000 16.149000 411.169000
76.938000 16.164000 411.557000
77.488000 16.180000 411.968000
78.024000 16.193000 412.297000
