86.330000 -16.484000 498.541000
87.006000 -16.504000 499.134000
87.781000 -16.542000 500.287000
88.530000 -16.575000 501.275000
21.375000 -14.560000 456.181000
21.910000 -14.568000 456.422000
22.436000 -14.569000 456.463000
22.986000 -14.585000 456.972000
23.501000 -14.579000 456.777000
24.054000 -14.596000 457.322000
24.567000 -14.589000 457.091000
25.115000 -14.603000 457.518000
25.633000 -14.599000 457.395000
26.176000 -14.609000 457.705000
26.702000 -14.609000 457.702000
27.253000 -14.622000 458.132000
27.765000 -14.615000 457.900000
28.335000 -14.638000 458.617000
28.845000 -14.629000 458.346000
29.404000 -14.646000 458.869000
29.912000 -14.636000 458.578000
30.473000 -14.653000 459.094000
30.992000 -14.649000 458.970000
31.546000 -14.662000 459.363000
32.057000 -14.654000 459.130000
32.628000 -14.674000 459.745000
33.136000 -14.665000 459.463000
33.709000 -14.685000 460.087000
34.212000 -14.674000 459.744000
34.783000 -14.692000 460.322000
35.315000 -14.693000 460.362000
35.874000 -14.706000 460.752000
36.381000 -14.697000 460.477000
36.947000 -14.712000 460.940000
37.472000 -14.710000 460.888000
38.046000 -14.727000 461.426000
38.529000 -14.710000 460.872000
39.120000 -14.733000 461.603000
39.603000 -14.715000 461.051000
40.200000 -14.740000 461.824000
40.708000 -14.732000 461.578000
41.289000 -14.750000 462.149000
41.812000 -14.748000 462.062000
42.387000 -14.763000 462.540000
42.898000 -14.756000 462.327000
43.474000 -14.772000 462.810000
44.011000 -14.774000 462.871000
44.564000 -14.781000 463.092000
45.068000 -14.771000 462.808000
45.643000 -14.786000 463.250000
46.174000 -14.785000 463.235000
46.735000 -14.794000 463.523000
47.270000 -14.795000 463.558000
47.834000 -14.805000 463.866000
48.394000 -14.814000 464.128000
48.958000 -14.823000 464.417000
49.465000 -14.815000 464.173000
50.039000 -14.827000 464.556000
50.570000 -14.826000 464.527000
51.120000 -14.831000 464.679000
51.684000 -14.840000 464.959000
52.224000 -14.842000 465.009000
52.796000 -14.852000 465.345000
53.354000 -14.859000 465.554000
53.897000 -14.861000 465.622000
54.488000 -14.877000 466.110000
54.967000 -14.862000 465.630000
55.581000 -14.883000 466.291000
56.069000 -14.870000 465.900000
56.682000 -14.891000 466.543000
57.212000 -14.889000 466.501000
57.856000 -14.917000 467.376000
58.344000 -14.905000 466.984000
59.006000 -14.937000 467.980000
59.459000 -14.915000 467.318000
60.138000 -14.951000 468.428000
60.668000 -14.949000 468.362000
61.306000 -14.973000 469.134000
61.883000 -14.983000 469.420000
62.491000 -14.999000 469.944000
63.107000 -15.017000 470.509000
63.737000 -15.038000 471.173000
64.301000 -15.044000 471.346000
64.969000 -15.073000 472.261000
65.571000 -15.087000 472.693000
66.195000 -15.106000 473.278000
66.827000 -15.126000 473.905000
67.501000 -15.155000 474.819000
68.114000 -15.170000 475.291000
68.786000 -15.198000 476.164000
69.386000 -15.209000 476.526000
70.049000 -15.235000 477.319000
70.664000 -15.249000 477.773000
71.348000 -15.278000 478.677000
71.961000 -15.292000 479.103000
72.618000 -15.314000 479.803000
73.254000 -15.332000 480.367000
73.893000 -15.350000 480.935000
74.569000 -15.375000 481.731000
75.231000 -15.398000 482.430000
75.964000 -15.434000 483.570000
76.655000 -15.462000 484.431000
77.373000 -15.494000 485.442000
78.090000 -15.526000 486.435000
78.755000 -15.547000 487.097000
79.431000 -15.570000 487.814000
80.142000 -15.599000 488.735000
80.799000 -15.617000 489.314000
81.525000 -15.649000 490.301000
82.185000 -15.667000 490.879000
82.918000 -15.700000 491.885000
83.553000 -15.713000 492.297000
84.319000 -15.750000 493.473000
84.968000 -15.766000 493.952000
85.717000 -15.799000 495.002000
86.416000 -15.823000 495.748000
87.178000 -15.858000 496.847000
87.910000 -15.887000 497.762000
21.384000 -14.042000 456.368000
21.919000 -14.049000 456.613000
22.440000 -14.047000 456.536000
23.000000 -14.069000 457.258000
23.506000 -14.058000 456.877000
24.060000 -14.075000 457.435000
24.567000 -14.065000 457.105000
25.122000 -14.081000 457.652000
25.642000 -14.078000 457.551000
26.187000 -14.089000 457.889000
26.707000 -14.086000 457.790000
27.257000 -14.098000 458.194000
27.768000 -14.091000 457.947000
28.338000 -14.112000 458.658000
28.849000 -14.105000 458.423000
29.406000 -14.120000 458.894000
29.914000 -14.111000 458.601000
30.479000 -14.128000 459.176000
30.999000 -14.125000 459.072000
31.554000 -14.138000 459.484000
32.067000 -14.131000 459.264000
32.643000 -14.152000 459.956000
33.141000 -14.140000 459.541000
33.715000 -14.159000 460.170000
34.218000 -14.149000 459.836000
34.792000 -14.167000 460.443000
35.331000 -14.171000 460.573000
35.885000 -14.181000 460.899000
36.396000 -14.174000 460.668000
36.968000 -14.191000 461.197000
37.476000 -14.182000 460.934000
38.050000 -14.199000 461.484000
38.539000 -14.184000 460.985000
39.122000 -14.204000 461.627000
39.619000 -14.192000 461.233000
40.207000 -14.212000 461.905000
40.737000 -14.212000 461.905000
41.304000 -14.225000 462.308000
41.833000 -14.224000 462.296000
42.400000 -14.236000 462.689000
42.908000 -14.229000 462.434000
43.483000 -14.243000 462.901000
44.019000 -14.245000 462.956000
44.570000 -14.251000 463.153000
45.090000 -14.247000 463.032000
45.656000 -14.258000 463.378000
46.210000 -14.264000 463.595000
46.752000 -14.267000 463.692000
47.300000 -14.272000 463.848000
47.869000 -14.283000 464.203000
48.402000 -14.283000 464.199000
48.969000 -14.293000 464.527000
49.488000 -14.289000 464.385000
50.051000 -14.297000 464.662000
50.596000 -14.300000 464.770000
51.130000 -14.300000 464.771000
51.701000 -14.311000 465.110000
52.243000 -14.313000 465.177000
52.821000 -14.325000 465.565000
53.389000 -14.334000 465.860000
53.907000 -14.329000 465.713000
54.518000 -14.349000 466.360000
55.014000 -14.339000 466.029000
55.596000 -14.351000 466.424000
56.105000 -14.344000 466.198000
56.702000 -14.360000 466.704000
57.223000 -14.356000 466.590000
57.856000 -14.381000 467.375000
58.341000 -14.368000 466.956000
58.992000 -14.396000 467.867000
59.431000 -14.372000 467.100000
60.093000 -14.402000 468.074000
60.549000 -14.383000 467.450000
61.209000 -14.412000 468.387000
61.698000 -14.400000 468.016000
62.356000 -14.428000 468.928000
62.855000 -14.419000 468.636000
63.508000 -14.445000 469.478000
64.052000 -14.447000 469.520000
64.675000 -14.465000 470.130000
65.266000 -14.477000 470.496000
65.915000 -14.501000 471.273000
66.491000 -14.508000 471.517000
67.160000 -14.536000 472.420000
67.777000 -14.552000 472.936000
68.429000 -14.575000 473.694000
69.036000 -14.588000 474.123000
69.692000 -14.612000 474.887000
70.328000 -14.630000 475.496000
70.984000 -14.653000 476.237000
71.629000 -14.673000 476.888000
72.261000 -14.691000 477.449000
72.903000 -14.710000 478.065000
73.554000 -14.730000 478.729000
74.189000 -14.747000 479.278000
74.848000 -14.768000 479.978000
75.502000 -14.788000 480.627000
76.140000 -14.805000 481.172000
76.776000 -14.821000 481.699000
77.421000 -14.839000 482.273000
78.159000 -14.874000 483.411000
78.821000 -14.894000 484.064000
79.630000 -14.942000 485.608000
80.244000 -14.952000 485.952000
81.061000 -15.000000 487.507000
81.695000 -15.014000 487.951000
82.440000 -15.048000 489.051000
83.123000 -15.069000 489.762000
83.843000 -15.098000 490.688000
84.546000 -15.123000 491.495000
85.224000 -15.143000 492.151000
85.883000 -15.160000 492.692000
86.580000 -15.183000 493.439000
87.287000 -15.207000 494.235000
88.021000 -15.236000 495.169000
88.707000 -15.256000 495.828000
89.528000 -15.299000 497.227000
21.392000 -13.523000 456.547000
21.939000 -13.537000 457.012000
22.450000 -13.529000 456.735000
23.013000 -13.551000 457.498000
23.514000 -13.538000 457.034000
24.069000 -13.555000 457.611000
24.578000 -13.545000 457.296000
25.136000 -13.563000 457.895000
25.658000 -13.561000 457.826000
26.192000 -13.566000 457.979000
26.702000 -13.557000 457.701000
27.205000 -13.546000 457.321000
27.751000 -13.557000 457.675000
28.320000 -13.577000 458.380000
28.850000 -13.579000 458.433000
29.399000 -13.589000 458.783000
29.918000 -13.586000 458.667000
30.481000 -13.602000 459.214000
31.005000 -13.601000 459.171000
31.565000 -13.615000 459.636000
32.085000 -13.612000 459.532000
32.659000 -13.631000 460.180000
33.152000 -13.616000 459.697000
33.727000 -13.635000 460.335000
34.258000 -13.636000 460.370000
34.811000 -13.646000 460.694000
35.366000 -13.656000 461.027000
35.906000 -13.660000 461.159000
36.425000 -13.656000 461.030000
36.991000 -13.669000 461.485000
37.484000 -13.656000 461.039000
38.060000 -13.673000 461.599000
38.578000 -13.668000 461.451000
39.137000 -13.679000 461.802000
39.716000 -13.695000 462.364000
40.221000 -13.687000 462.072000
40.785000 -13.698000 462.451000
41.334000 -13.704000 462.648000
41.867000 -13.704000 462.667000
42.422000 -13.712000 462.925000
42.938000 -13.707000 462.758000
43.498000 -13.716000 463.065000
44.067000 -13.728000 463.455000
44.582000 -13.723000 463.283000
45.153000 -13.735000 463.681000
45.673000 -13.731000 463.554000
46.233000 -13.739000 463.827000
46.792000 -13.747000 464.096000
47.334000 -13.749000 464.181000
47.906000 -13.761000 464.562000
48.426000 -13.757000 464.431000
48.990000 -13.765000 464.721000
49.525000 -13.766000 464.737000
50.068000 -13.768000 464.827000
50.634000 -13.777000 465.116000
51.147000 -13.772000 464.931000
51.726000 -13.784000 465.337000
52.288000 -13.791000 465.582000
52.842000 -13.796000 465.749000
53.438000 -13.812000 466.285000
53.930000 -13.800000 465.909000
54.541000 -13.820000 466.557000
55.042000 -13.811000 466.268000
55.616000 -13.821000 466.591000
56.135000 -13.816000 466.449000
56.739000 -13.833000 467.010000
57.248000 -13.827000 466.790000
57.899000 -13.854000 467.720000
58.366000 -13.837000 467.156000
59.005000 -13.862000 467.972000
59.440000 -13.838000 467.170000
60.104000 -13.867000 468.160000
60.550000 -13.846000 467.458000
61.209000 -13.874000 468.388000
61.684000 -13.860000 467.917000
62.328000 -13.884000 468.714000
62.829000 -13.875000 468.435000
63.450000 -13.894000 469.050000
63.966000 -13.889000 468.890000
64.611000 -13.912000 469.662000
65.139000 -13.909000 469.583000
65.744000 -13.923000 470.049000
66.372000 -13.942000 470.678000
66.979000 -13.955000 471.142000
67.545000 -13.961000 471.317000
68.169000 -13.978000 471.891000
68.783000 -13.992000 472.391000
69.414000 -14.010000 472.988000
70.035000 -14.026000 473.520000
70.658000 -14.042000 474.047000
71.294000 -14.060000 474.659000
71.933000 -14.078000 475.279000
72.571000 -14.096000 475.884000
73.228000 -14.117000 476.605000
73.894000 -14.140000 477.375000
74.538000 -14.158000 477.990000
75.192000 -14.178000 478.658000
75.833000 -14.195000 479.235000
76.489000 -14.215000 479.900000
77.114000 -14.228000 480.355000
77.814000 -14.256000 481.275000
78.434000 -14.268000 481.690000
79.161000 -14.299000 482.750000
79.769000 -14.309000 483.077000
80.517000 -14.343000 484.239000
81.196000 -14.365000 484.973000
81.912000 -14.393000 485.917000
82.625000 -14.420000 486.832000
83.322000 -14.444000 487.636000
84.050000 -14.473000 488.612000
84.770000 -14.500000 489.530000
85.391000 -14.510000 489.868000
86.161000 -14.545000 491.053000
86.788000 -14.556000 491.407000
87.580000 -14.594000 492.692000
88.212000 -14.605000 493.061000
88.983000 -14.638000 494.199000
-7.731000 -11.838000 415.773000
-7.250000 -11.831000 415.531000
-6.772000 -11.830000 415.482000
-6.293000 -11.827000 415.398000
-5.815000 -11.825000 415.302000
-5.338000 -11.824000 415.286000
-4.860000 -11.820000 415.152000
-4.383000 -11.821000 415.177000
-3.905000 -11.817000 415.024000
-3.430000 -11.821000 415.184000
-2.953000 -11.821000 415.185000
-2.478000 -11.828000 415.417000
-2.001000 -11.828000 415.431000
-1.524000 -11.833000 415.582000
-1.047000 -11.836000 415.707000
-0.570000 -11.845000 416.003000
-0.093000 -11.848000 416.132000
0.385000 -11.857000 416.427000
21.402000 -13.005000 456.761000
21.951000 -13.019000 457.265000
22.457000 -13.008000 456.875000
23.016000 -13.028000 457.571000
23.518000 -13.015000 457.111000
24.075000 -13.032000 457.719000
24.586000 -13.025000 457.452000
25.145000 -13.042000 458.067000
25.663000 -13.038000 457.920000
26.194000 -13.041000 458.010000
26.694000 -13.028000 457.560000
27.192000 -13.015000 457.101000
27.723000 -13.018000 457.216000
28.262000 -13.024000 457.428000
28.818000 -13.038000 457.923000
29.380000 -13.054000 458.488000
29.897000 -13.050000 458.346000
30.470000 -13.070000 459.042000
30.998000 -13.071000 459.064000
31.562000 -13.086000 459.593000
32.086000 -13.084000 459.549000
32.663000 -13.104000 460.231000
33.157000 -13.090000 459.758000
33.738000 -13.111000 460.487000
34.265000 -13.111000 460.467000
34.820000 -13.120000 460.803000
35.372000 -13.129000 461.106000
35.903000 -13.129000 461.129000
36.434000 -13.130000 461.145000
36.998000 -13.142000 461.578000
37.497000 -13.131000 461.196000
38.070000 -13.146000 461.721000
38.634000 -13.158000 462.130000
39.153000 -13.154000 461.985000
39.726000 -13.168000 462.488000
40.235000 -13.161000 462.225000
40.805000 -13.174000 462.678000
41.355000 -13.179000 462.883000
41.875000 -13.176000 462.760000
42.428000 -13.182000 462.990000
42.955000 -13.181000 462.946000
43.506000 -13.187000 463.151000
44.092000 -13.203000 463.722000
44.592000 -13.193000 463.378000
45.168000 -13.206000 463.831000
45.683000 -13.201000 463.657000
46.251000 -13.211000 464.011000
46.830000 -13.224000 464.467000
47.354000 -13.222000 464.379000
47.931000 -13.234000 464.803000
48.448000 -13.229000 464.638000
49.008000 -13.237000 464.894000
49.541000 -13.236000 464.889000
50.088000 -13.240000 465.012000
50.647000 -13.246000 465.237000
51.199000 -13.251000 465.400000
51.744000 -13.254000 465.495000
52.331000 -13.267000 465.966000
52.857000 -13.265000 465.878000
53.464000 -13.283000 466.513000
53.947000 -13.270000 466.055000
54.545000 -13.285000 466.598000
55.049000 -13.277000 466.326000
55.642000 -13.291000 466.809000
56.162000 -13.287000 466.672000
56.775000 -13.305000 467.312000
57.270000 -13.296000 466.970000
57.921000 -13.322000 467.898000
58.383000 -13.305000 467.296000
59.016000 -13.327000 468.061000
59.483000 -13.311000 467.504000
60.109000 -13.331000 468.201000
60.594000 -13.319000 467.794000
61.209000 -13.336000 468.386000
61.726000 -13.332000 468.230000
62.339000 -13.348000 468.799000
62.851000 -13.342000 468.605000
63.491000 -13.364000 469.353000
63.957000 -13.348000 468.823000
64.599000 -13.370000 469.577000
65.068000 -13.355000 469.069000
65.696000 -13.374000 469.711000
66.208000 -13.368000 469.514000
66.810000 -13.381000 469.955000
67.395000 -13.390000 470.273000
67.949000 -13.393000 470.370000
68.541000 -13.403000 470.729000
69.153000 -13.417000 471.215000
69.733000 -13.424000 471.478000
70.366000 -13.442000 472.092000
70.937000 -13.447000 472.286000
71.600000 -13.470000 473.078000
72.235000 -13.487000 473.681000
72.861000 -13.502000 474.217000
73.535000 -13.526000 475.053000
74.173000 -13.543000 475.643000
74.801000 -13.558000 476.169000
75.444000 -13.575000 476.778000
76.111000 -13.596000 477.527000
76.749000 -13.612000 478.086000
77.417000 -13.633000 478.818000
78.064000 -13.650000 479.414000
78.735000 -13.671000 480.153000
79.382000 -13.687000 480.730000
80.050000 -13.707000 481.430000
80.691000 -13.722000 481.953000
81.385000 -13.746000 482.791000
81.990000 -13.755000 483.088000
82.769000 -13.792000 484.398000
83.363000 -13.798000 484.622000
84.201000 -13.845000 486.248000
84.753000 -13.844000 486.210000
-8.676000 -11.348000 415.295000
-8.195000 -11.342000 415.087000
-7.716000 -11.339000 414.969000
-7.236000 -11.332000 414.739000
-6.756000 -11.327000 414.535000
-6.280000 -11.327000 414.544000
-5.802000 -11.322000 414.353000
-5.326000 -11.323000 414.386000
-4.849000 -11.320000 414.292000
-4.374000 -11.321000 414.319000
-3.898000 -11.321000 414.306000
-3.423000 -11.322000 414.359000
-2.948000 -11.325000 414.459000
-2.472000 -11.327000 414.534000
-1.997000 -11.329000 414.605000
-1.521000 -11.333000 414.751000
-1.045000 -11.336000 414.864000
-0.569000 -11.340000 415.014000
-0.093000 -11.349000 415.334000
0.384000 -11.351000 415.430000
20.901000 -12.494000 457.264000
21.414000 -12.487000 457.008000
21.966000 -12.503000 457.583000
22.467000 -12.489000 457.077000
23.028000 -12.509000 457.795000
23.524000 -12.493000 457.233000
24.086000 -12.512000 457.929000
24.600000 -12.506000 457.705000
29.306000 -12.496000 457.327000
29.824000 -12.493000 457.228000
30.395000 -12.512000 457.921000
30.952000 -12.525000 458.379000
31.516000 -12.540000 458.923000
32.051000 -12.543000 459.039000
32.626000 -12.561000 459.716000
33.138000 -12.555000 459.497000
33.727000 -12.578000 460.337000
34.233000 -12.570000 460.027000
34.813000 -12.589000 460.721000
35.361000 -12.595000 460.959000
35.906000 -12.601000 461.164000
36.447000 -12.605000 461.315000
37.013000 -12.617000 461.761000
37.541000 -12.617000 461.737000
38.091000 -12.623000 461.979000
38.644000 -12.630000 462.248000
39.181000 -12.633000 462.323000
39.726000 -12.637000 462.479000
40.263000 -12.639000 462.552000
40.834000 -12.651000 463.004000
41.388000 -12.658000 463.253000
41.897000 -12.651000 463.004000
42.444000 -12.656000 463.168000
43.000000 -12.663000 463.426000
43.523000 -12.660000 463.328000
44.112000 -12.676000 463.928000
44.609000 -12.666000 463.559000
45.182000 -12.678000 463.974000
45.734000 -12.683000 464.176000
46.277000 -12.686000 464.269000
46.872000 -12.702000 464.883000
47.369000 -12.693000 464.528000
47.959000 -12.708000 465.078000
48.472000 -12.702000 464.875000
49.023000 -12.707000 465.036000
49.563000 -12.708000 465.088000
50.139000 -12.719000 465.479000
50.660000 -12.715000 465.355000
51.290000 -12.739000 466.223000
51.767000 -12.725000 465.705000
52.373000 -12.742000 466.340000
52.882000 -12.736000 466.105000
53.484000 -12.752000 466.687000
53.967000 -12.739000 466.228000
54.563000 -12.753000 466.749000
55.061000 -12.745000 466.423000
55.674000 -12.762000 467.076000
56.186000 -12.757000 466.875000
56.816000 -12.778000 467.649000
57.290000 -12.764000 467.130000
57.941000 -12.789000 468.056000
58.398000 -12.772000 467.414000
59.037000 -12.794000 468.224000
59.516000 -12.781000 467.767000
60.130000 -12.797000 468.360000
60.639000 -12.791000 468.139000
61.234000 -12.804000 468.581000
61.771000 -12.803000 468.571000
62.372000 -12.816000 469.050000
62.887000 -12.812000 468.874000
63.516000 -12.830000 469.538000
63.976000 -12.814000 468.960000
64.618000 -12.834000 469.713000
65.106000 -12.824000 469.339000
65.702000 -12.835000 469.747000
66.258000 -12.839000 469.870000
66.818000 -12.843000 470.010000
67.407000 -12.852000 470.358000
67.937000 -12.850000 470.285000
68.525000 -12.859000 470.613000
69.101000 -12.866000 470.857000
69.665000 -12.870000 471.014000
70.267000 -12.881000 471.424000
70.847000 -12.888000 471.681000
71.430000 -12.896000 471.955000
72.052000 -12.910000 472.485000
72.682000 -12.926000 473.053000
73.279000 -12.935000 473.401000
73.888000 -12.947000 473.819000
74.544000 -12.966000 474.528000
75.137000 -12.974000 474.835000
75.784000 -12.992000 475.475000
76.418000 -13.007000 476.023000
77.085000 -13.027000 476.764000
77.694000 -13.037000 477.143000
78.378000 -13.060000 477.972000
79.017000 -13.075000 478.519000
79.715000 -13.100000 479.415000
80.337000 -13.111000 479.844000
81.070000 -13.141000 480.919000
81.639000 -13.143000 481.021000
82.371000 -13.172000 482.069000
82.952000 -13.177000 482.233000
83.752000 -13.215000 483.654000
84.303000 -13.215000 483.629000
85.090000 -13.251000 484.949000
85.727000 -13.263000 485.402000
86.470000 -13.292000 486.449000
87.175000 -13.314000 487.265000
87.853000 -13.332000 487.924000
88.600000 -13.360000 488.956000
89.311000 -13.383000 489.772000
90.010000 -13.403000 490.520000
90.757000 -13.430000 491.512000
-10.107000 -10.871000 415.292000
-9.622000 -10.861000 414.934000
-9.141000 -10.857000 414.762000
-8.659000 -10.849000 414.466000
-8.180000 -10.845000 414.311000
-7.699000 -10.838000 414.029000
-7.224000 -10.839000 414.067000
-6.744000 -10.831000 413.769000
-6.270000 -10.832000 413.828000
-5.792000 -10.827000 413.633000
-5.316000 -10.826000 413.588000
-4.841000 -10.825000 413.564000
-4.366000 -10.826000 413.593000
-3.891000 -10.825000 413.553000
-3.417000 -10.827000 413.634000
-2.942000 -10.828000 413.663000
-2.468000 -10.831000 413.783000
-1.993000 -10.832000 413.831000
-1.518000 -10.836000 413.969000
-1.043000 -10.838000 414.065000
-0.568000 -10.843000 414.230000
-0.092000 -10.847000 414.401000
0.384000 -10.854000 414.645000
0.860000 -10.859000 414.841000
1.338000 -10.866000 415.127000
1.816000 -10.877000 415.554000
2.295000 -10.886000 415.897000
2.776000 -10.898000 416.344000
3.256000 -10.907000 416.680000
3.739000 -10.918000 417.119000
4.221000 -10.928000 417.468000
20.908000 -11.974000 457.428000
21.421000 -11.966000 457.157000
21.973000 -11.981000 457.731000
22.474000 -11.968000 457.228000
23.033000 -11.986000 457.906000
23.532000 -11.972000 457.375000
24.091000 -11.989000 458.029000
30.318000 -11.956000 456.753000
30.854000 -11.960000 456.923000
31.440000 -11.984000 457.820000
31.966000 -11.984000 457.825000
32.556000 -12.008000 458.730000
33.097000 -12.013000 458.928000
33.695000 -12.038000 459.891000
34.191000 -12.027000 459.463000
34.789000 -12.051000 460.397000
35.313000 -12.050000 460.333000
35.892000 -12.066000 460.980000
36.425000 -12.068000 461.033000
37.002000 -12.084000 461.629000
37.528000 -12.082000 461.578000
38.093000 -12.093000 461.999000
38.655000 -12.103000 462.372000
39.181000 -12.102000 462.322000
39.731000 -12.107000 462.543000
40.274000 -12.111000 462.679000
40.839000 -12.121000 463.055000
41.391000 -12.127000 463.292000
41.908000 -12.123000 463.127000
42.459000 -12.128000 463.332000
43.003000 -12.131000 463.456000
43.537000 -12.132000 463.480000
44.125000 -12.147000 464.063000
44.615000 -12.136000 463.616000
45.204000 -12.151000 464.198000
45.791000 -12.165000 464.753000
46.293000 -12.157000 464.431000
46.886000 -12.172000 465.028000
47.384000 -12.163000 464.668000
47.972000 -12.177000 465.203000
48.490000 -12.173000 465.043000
49.042000 -12.177000 465.218000
49.574000 -12.177000 465.195000
50.178000 -12.194000 465.845000
50.679000 -12.186000 465.536000
51.316000 -12.210000 466.463000
51.792000 -12.196000 465.925000
52.402000 -12.213000 466.593000
52.887000 -12.202000 466.151000
53.493000 -12.218000 466.765000
53.981000 -12.207000 466.352000
54.583000 -12.222000 466.915000
55.081000 -12.213000 466.592000
55.705000 -12.233000 467.333000
56.196000 -12.223000 466.954000
56.834000 -12.245000 467.797000
57.303000 -12.230000 467.237000
57.953000 -12.254000 468.154000
58.412000 -12.238000 467.529000
59.058000 -12.260000 468.390000
59.529000 -12.247000 467.866000
60.151000 -12.264000 468.526000
60.671000 -12.260000 468.386000
61.269000 -12.272000 468.847000
61.804000 -12.272000 468.826000
62.414000 -12.286000 469.365000
62.931000 -12.282000 469.202000
63.536000 -12.294000 469.688000
64.037000 -12.287000 469.406000
64.615000 -12.294000 469.689000
65.149000 -12.293000 469.651000
65.708000 -12.297000 469.793000
66.321000 -12.311000 470.316000
66.829000 -12.305000 470.087000
67.426000 -12.315000 470.489000
68.020000 -12.325000 470.858000
68.554000 -12.324000 470.812000
69.137000 -12.331000 471.103000
69.675000 -12.331000 471.085000
70.245000 -12.336000 471.281000
70.809000 -12.340000 471.432000
71.371000 -12.344000 471.567000
71.964000 -12.353000 471.908000
72.505000 -12.352000 471.900000
73.101000 -12.361000 472.249000
73.688000 -12.369000 472.538000
74.260000 -12.374000 472.723000
74.906000 -12.391000 473.374000
75.507000 -12.400000 473.734000
76.067000 -12.403000 473.838000
76.742000 -12.424000 474.647000
77.306000 -12.427000 474.761000
78.010000 -12.453000 475.729000
78.627000 -12.464000 476.159000
79.327000 -12.488000 477.082000
79.941000 -12.498000 477.479000
80.642000 -12.522000 478.380000
81.255000 -12.532000 478.756000
81.924000 -12.550000 479.457000
82.575000 -12.565000 480.040000
83.285000 -12.589000 480.956000
83.905000 -12.600000 481.346000
84.607000 -12.622000 482.196000
85.265000 -12.637000 482.785000
85.958000 -12.658000 483.564000
86.577000 -12.667000 483.924000
87.309000 -12.693000 484.904000
87.918000 -12.700000 485.192000
88.691000 -12.731000 486.375000
89.318000 -12.741000 486.744000
90.113000 -12.774000 488.027000
90.761000 -12.787000 488.497000
91.552000 -12.819000 489.729000
-10.568000 -10.379000 414.696000
-10.086000 -10.373000 414.446000
-9.605000 -10.367000 414.238000
-9.125000 -10.363000 414.045000
-8.644000 -10.355000 413.750000
-8.166000 -10.352000 413.621000
-7.687000 -10.347000 413.407000
-7.211000 -10.344000 413.304000
-6.734000 -10.341000 413.193000
-6.258000 -10.338000 413.073000
-5.783000 -10.337000 413.030000
-5.308000 -10.336000 412.971000
-4.833000 -10.333000 412.882000
-4.360000 -10.336000 412.986000
-3.885000 -10.334000 412.893000
-3.412000 -10.336000 412.990000
-2.937000 -10.334000 412.899000
-2.464000 -10.339000 413.114000
-1.989000 -10.338000 413.064000
-1.516000 -10.343000 413.256000
-1.041000 -10.345000 413.327000
-0.567000 -10.349000 413.488000
-0.092000 -10.353000 413.649000
0.383000 -10.359000 413.912000
0.859000 -10.362000 414.018000
1.335000 -10.370000 414.335000
1.812000 -10.378000 414.647000
2.290000 -10.386000 414.995000
2.769000 -10.396000 415.387000
3.249000 -10.404000 415.717000
3.730000 -10.416000 416.168000
4.212000 -10.425000 416.538000
4.697000 -10.440000 417.147000
20.917000 -11.453000 457.631000
21.433000 -11.448000 457.428000
21.981000 -11.460000 457.888000
22.490000 -11.452000 457.557000
23.043000 -11.465000 458.103000
23.555000 -11.458000 457.829000
24.103000 -11.469000 458.258000
30.702000 -11.379000 454.673000
31.290000 -11.404000 455.639000
31.818000 -11.405000 455.711000
32.419000 -11.433000 456.805000
32.944000 -11.433000 456.804000
33.550000 -11.460000 457.915000
34.071000 -11.459000 457.852000
34.675000 -11.485000 458.888000
35.198000 -11.484000 458.840000
35.809000 -11.511000 459.922000
36.343000 -11.512000 459.989000
36.931000 -11.531000 460.743000
37.463000 -11.532000 460.774000
38.046000 -11.548000 461.425000
38.560000 -11.544000 461.242000
39.155000 -11.563000 462.012000
39.676000 -11.560000 461.906000
40.264000 -11.577000 462.561000
40.812000 -11.582000 462.755000
41.379000 -11.592000 463.151000
41.910000 -11.591000 463.143000
42.474000 -11.600000 463.493000
43.011000 -11.601000 463.548000
43.577000 -11.610000 463.903000
44.132000 -11.616000 464.136000
44.660000 -11.615000 464.093000
45.224000 -11.623000 464.405000
45.824000 -11.640000 465.088000
46.304000 -11.626000 464.541000
46.903000 -11.643000 465.198000
47.402000 -11.634000 464.851000
47.993000 -11.648000 465.401000
48.504000 -11.642000 465.177000
49.088000 -11.654000 465.648000
49.598000 -11.648000 465.421000
50.236000 -11.672000 466.386000
50.703000 -11.657000 465.752000
51.340000 -11.680000 466.680000
51.812000 -11.665000 466.103000
52.428000 -11.683000 466.823000
52.904000 -11.670000 466.299000
53.516000 -11.687000 466.966000
54.010000 -11.678000 466.601000
54.602000 -11.690000 467.079000
55.104000 -11.683000 466.792000
55.740000 -11.704000 467.626000
56.216000 -11.691000 467.126000
56.853000 -11.712000 467.947000
57.320000 -11.697000 467.380000
57.968000 -11.720000 468.275000
58.435000 -11.706000 467.711000
59.071000 -11.725000 468.492000
59.564000 -11.716000 468.141000
60.167000 -11.729000 468.652000
60.700000 -11.728000 468.609000
61.297000 -11.739000 469.063000
61.837000 -11.740000 469.075000
62.446000 -11.753000 469.603000
62.971000 -11.750000 469.498000
63.555000 -11.759000 469.826000
64.091000 -11.758000 469.807000
64.636000 -11.759000 469.844000
65.210000 -11.765000 470.093000
65.735000 -11.763000 469.984000
66.347000 -11.775000 470.502000
66.853000 -11.769000 470.259000
67.455000 -11.780000 470.689000
68.066000 -11.793000 471.182000
68.585000 -11.789000 471.027000
69.174000 -11.797000 471.354000
69.701000 -11.794000 471.259000
70.272000 -11.799000 471.460000
70.836000 -11.803000 471.608000
71.384000 -11.804000 471.653000
71.978000 -11.813000 471.995000
72.527000 -11.814000 472.044000
73.110000 -11.821000 472.311000
73.673000 -11.824000 472.443000
74.237000 -11.827000 472.577000
74.862000 -11.840000 473.096000
75.378000 -11.836000 472.929000
75.981000 -11.845000 473.298000
76.595000 -11.856000 473.737000
77.148000 -11.858000 473.792000
77.830000 -11.879000 474.636000
78.408000 -11.884000 474.834000
79.064000 -11.901000 475.501000
79.658000 -11.908000 475.785000
80.308000 -11.923000 476.403000
80.920000 -11.933000 476.783000
81.597000 -11.952000 477.541000
82.194000 -11.959000 477.823000
82.918000 -11.984000 478.838000
83.514000 -11.991000 479.104000
84.219000 -12.013000 479.982000
84.839000 -12.022000 480.371000
85.587000 -12.050000 481.481000
86.178000 -12.056000 481.691000
86.937000 -12.084000 482.837000
87.524000 -12.089000 483.017000
88.271000 -12.115000 484.072000
88.871000 -12.121000 484.310000
89.604000 -12.145000 485.268000
90.249000 -12.157000 485.741000
90.967000 -12.178000 486.598000
91.677000 -12.198000 487.403000
92.400000 -12.220000 488.264000
-11.035000 -9.894000 414.327000
-10.551000 -9.887000 414.032000
-10.070000 -9.881000 413.787000
-9.589000 -9.874000 413.509000
-9.110000 -9.870000 413.348000
-8.630000 -9.864000 413.098000
-8.154000 -9.862000 413.000000
-7.675000 -9.857000 412.771000
-7.200000 -9.855000 412.687000
-6.724000 -9.851000 412.553000
-6.250000 -9.851000 412.550000
-5.774000 -9.847000 412.379000
-5.301000 -9.848000 412.410000
-4.826000 -9.845000 412.288000
-4.354000 -9.848000 412.391000
-3.880000 -9.846000 412.329000
-3.407000 -9.848000 412.391000
-2.933000 -9.847000 412.381000
-2.460000 -9.848000 412.426000
-1.986000 -9.850000 412.485000
-1.513000 -9.852000 412.595000
-1.040000 -9.855000 412.708000
-0.566000 -9.858000 412.841000
-0.092000 -9.864000 413.061000
0.382000 -9.867000 413.215000
0.857000 -9.874000 413.483000
1.333000 -9.879000 413.711000
1.809000 -9.885000 413.975000
2.286000 -9.891000 414.200000
2.764000 -9.900000 414.592000
3.243000 -9.908000 414.928000
3.723000 -9.918000 415.323000
4.204000 -9.928000 415.771000
4.688000 -9.941000 416.322000
5.172000 -9.953000 416.816000
5.660000 -9.970000 417.505000
20.919000 -10.929000 457.668000
21.437000 -10.925000 457.499000
21.985000 -10.936000 457.984000
22.504000 -10.933000 457.846000
23.050000 -10.943000 458.247000
34.585000 -10.930000 457.705000
35.076000 -10.919000 457.254000
35.686000 -10.945000 458.336000
36.241000 -10.953000 458.699000
36.822000 -10.970000 459.375000
37.365000 -10.974000 459.573000
37.959000 -10.993000 460.378000
38.487000 -10.993000 460.367000
39.115000 -11.021000 461.537000
39.596000 -11.008000 460.967000
40.222000 -11.034000 462.086000
40.759000 -11.036000 462.152000
41.357000 -11.054000 462.905000
41.883000 -11.052000 462.841000
42.462000 -11.065000 463.368000
43.014000 -11.070000 463.580000
43.585000 -11.080000 463.986000
44.132000 -11.083000 464.144000
44.705000 -11.093000 464.551000
45.224000 -11.090000 464.412000
45.819000 -11.105000 465.039000
46.312000 -11.095000 464.626000
46.907000 -11.109000 465.229000
47.420000 -11.105000 465.028000
48.011000 -11.118000 465.576000
48.527000 -11.113000 465.400000
49.123000 -11.127000 465.989000
49.622000 -11.119000 465.643000
50.246000 -11.139000 466.471000
50.729000 -11.128000 465.991000
51.354000 -11.147000 466.812000
51.823000 -11.133000 466.202000
52.444000 -11.151000 466.970000
52.930000 -11.140000 466.528000
53.540000 -11.156000 467.170000
54.034000 -11.147000 466.812000
54.633000 -11.160000 467.350000
55.128000 -11.151000 466.994000
55.763000 -11.171000 467.821000
56.241000 -11.159000 467.328000
56.863000 -11.176000 468.031000
57.340000 -11.164000 467.539000
57.980000 -11.184000 468.376000
58.475000 -11.176000 468.028000
59.084000 -11.190000 468.600000
59.610000 -11.187000 468.502000
60.188000 -11.195000 468.815000
60.736000 -11.197000 468.892000
61.322000 -11.205000 469.251000
61.868000 -11.207000 469.307000
62.465000 -11.217000 469.747000
63.014000 -11.219000 469.814000
63.569000 -11.222000 469.935000
64.154000 -11.230000 470.264000
64.663000 -11.224000 470.038000
65.254000 -11.233000 470.407000
65.764000 -11.228000 470.194000
66.376000 -11.240000 470.703000
66.922000 -11.241000 470.743000
67.487000 -11.245000 470.913000
68.074000 -11.253000 471.237000
68.613000 -11.252000 471.219000
69.182000 -11.257000 471.410000
69.717000 -11.256000 471.371000
70.297000 -11.262000 471.627000
70.863000 -11.266000 471.790000
71.423000 -11.269000 471.911000
71.999000 -11.274000 472.137000
72.612000 -11.285000 472.594000
73.146000 -11.284000 472.543000
73.727000 -11.290000 472.788000
74.257000 -11.288000 472.703000
74.867000 -11.298000 473.129000
75.381000 -11.294000 472.942000
75.983000 -11.302000 473.315000
76.580000 -11.310000 473.645000
77.114000 -11.309000 473.583000
77.755000 -11.323000 474.177000
78.254000 -11.316000 473.900000
78.909000 -11.332000 474.565000
79.421000 -11.328000 474.371000
80.092000 -11.345000 475.117000
80.637000 -11.345000 475.115000
81.325000 -11.365000 475.950000
81.805000 -11.356000 475.566000
82.550000 -11.383000 476.710000
83.129000 -11.388000 476.895000
83.828000 -11.408000 477.754000
84.421000 -11.414000 478.005000
85.145000 -11.438000 478.995000
85.792000 -11.451000 479.535000
86.474000 -11.468000 480.262000
87.098000 -11.478000 480.666000
87.804000 -11.498000 481.507000
88.455000 -11.511000 482.043000
89.130000 -11.527000 482.700000
89.796000 -11.541000 483.303000
90.490000 -11.559000 484.045000
91.147000 -11.572000 484.586000
91.842000 -11.589000 485.318000
-11.989000 -9.420000 414.414000
-11.503000 -9.412000 414.073000
-11.018000 -9.404000 413.705000
-10.534000 -9.396000 413.356000
-10.057000 -9.393000 413.246000
-9.574000 -9.385000 412.885000
-9.097000 -9.382000 412.732000
-8.617000 -9.376000 412.477000
-8.142000 -9.375000 412.413000
-7.664000 -9.369000 412.155000
-7.190000 -9.368000 412.114000
-6.714000 -9.364000 411.941000
-6.242000 -9.366000 412.027000
-5.766000 -9.361000 411.823000
-5.294000 -9.362000 411.867000
-4.820000 -9.360000 411.755000
-4.347000 -9.360000 411.778000
-3.874000 -9.359000 411.722000
-3.401000 -9.360000 411.768000
-2.929000 -9.361000 411.835000
-2.456000 -9.362000 411.869000
-1.984000 -9.364000 411.931000
-1.511000 -9.366000 412.034000
-1.038000 -9.369000 412.160000
-0.565000 -9.372000 412.283000
-0.092000 -9.376000 412.462000
0.382000 -9.379000 412.625000
0.856000 -9.385000 412.877000
1.331000 -9.389000 413.034000
1.806000 -9.396000 413.338000
2.282000 -9.400000 413.515000
2.759000 -9.407000 413.846000
3.237000 -9.414000 414.165000
3.716000 -9.424000 414.589000
4.197000 -9.434000 415.048000
4.678000 -9.443000 415.428000
5.161000 -9.455000 415.967000
5.646000 -9.467000 416.484000
20.928000 -10.408000 457.860000
21.450000 -10.406000 457.791000
21.995000 -10.415000 458.177000
22.532000 -10.420000 458.408000
38.966000 -10.451000 459.776000
39.511000 -10.456000 459.980000
40.128000 -10.479000 461.000000
40.637000 -10.474000 460.769000
41.264000 -10.499000 461.864000
41.774000 -10.493000 461.635000
42.388000 -10.514000 462.562000
42.912000 -10.513000 462.476000
43.525000 -10.532000 463.351000
44.064000 -10.534000 463.422000
44.648000 -10.546000 463.961000
45.188000 -10.548000 464.035000
45.768000 -10.559000 464.518000
46.302000 -10.559000 464.522000
46.894000 -10.572000 465.109000
47.411000 -10.569000 464.942000
48.006000 -10.582000 465.530000
48.530000 -10.580000 465.430000
49.139000 -10.596000 466.132000
49.634000 -10.587000 465.760000
50.246000 -10.603000 466.478000
50.755000 -10.598000 466.234000
51.359000 -10.612000 466.857000
51.836000 -10.600000 466.321000
52.462000 -10.618000 467.125000
52.966000 -10.612000 466.839000
53.569000 -10.625000 467.425000
54.064000 -10.617000 467.069000
54.676000 -10.632000 467.716000
55.169000 -10.623000 467.343000
55.791000 -10.639000 468.059000
56.270000 -10.628000 467.569000
56.888000 -10.643000 468.237000
57.388000 -10.637000 467.930000
57.988000 -10.648000 468.440000
58.521000 -10.647000 468.401000
59.093000 -10.653000 468.667000
59.644000 -10.656000 468.771000
60.201000 -10.659000 468.921000
60.762000 -10.663000 469.091000
61.353000 -10.672000 469.492000
61.893000 -10.672000 469.495000
62.484000 -10.681000 469.886000
63.035000 -10.683000 469.977000
63.586000 -10.685000 470.056000
64.164000 -10.691000 470.339000
64.680000 -10.687000 470.165000
65.278000 -10.697000 470.583000
65.820000 -10.697000 470.597000
66.399000 -10.703000 470.870000
66.970000 -10.708000 471.084000
67.516000 -10.709000 471.120000
68.125000 -10.720000 471.590000
68.632000 -10.714000 471.351000
69.215000 -10.721000 471.635000
69.750000 -10.720000 471.592000
70.329000 -10.725000 471.845000
70.901000 -10.730000 472.043000
71.470000 -10.734000 472.219000
72.032000 -10.737000 472.353000
72.666000 -10.751000 472.946000
73.171000 -10.745000 472.700000
73.764000 -10.752000 473.020000
74.275000 -10.748000 472.818000
74.889000 -10.758000 473.270000
75.426000 -10.757000 473.227000
76.007000 -10.762000 473.463000
76.609000 -10.770000 473.820000
77.126000 -10.767000 473.658000
77.780000 -10.782000 474.329000
78.266000 -10.774000 473.975000
78.907000 -10.787000 474.557000
79.399000 -10.780000 474.237000
80.060000 -10.796000 474.927000
80.576000 -10.792000 474.755000
81.242000 -10.808000 475.462000
81.718000 -10.798000 475.056000
82.417000 -10.819000 475.945000
82.903000 -10.811000 475.594000
83.598000 -10.830000 476.444000
84.228000 -10.841000 476.912000
84.853000 -10.851000 477.349000
85.473000 -10.860000 477.753000
86.159000 -10.877000 478.516000
86.726000 -10.879000 478.611000
87.426000 -10.898000 479.435000
88.050000 -10.907000 479.837000
88.730000 -10.923000 480.535000
89.381000 -10.935000 481.072000
90.063000 -10.951000 481.765000
90.717000 -10.963000 482.299000
91.417000 -10.981000 483.071000
92.082000 -10.994000 483.650000
92.780000 -11.011000 484.395000
-11.969000 -8.929000 413.734000
-11.485000 -8.923000 413.416000
-11.004000 -8.917000 413.169000
-10.520000 -8.910000 412.814000
-10.043000 -8.907000 412.678000
-9.562000 -8.900000 412.366000
-9.085000 -8.896000 412.186000
-8.607000 -8.892000 411.981000
-8.131000 -8.889000 411.835000
-7.654000 -8.884000 411.628000
-7.181000 -8.884000 411.617000
-6.706000 -8.880000 411.447000
-6.234000 -8.880000 411.456000
-5.760000 -8.878000 411.354000
-5.287000 -8.877000 411.285000
-4.814000 -8.876000 411.246000
-4.342000 -8.877000 411.288000
-3.869000 -8.876000 411.256000
-3.398000 -8.877000 411.287000
-2.925000 -8.877000 411.280000
-2.454000 -8.879000 411.402000
-1.981000 -8.879000 411.375000
-1.509000 -8.883000 411.560000
-1.037000 -8.884000 411.642000
-0.565000 -8.888000 411.792000
-0.092000 -8.890000 411.881000
0.381000 -8.894000 412.097000
0.855000 -8.897000 412.249000
1.329000 -8.903000 412.499000
1.804000 -8.908000 412.742000
2.279000 -8.912000 412.908000
2.755000 -8.919000 413.256000
3.232000 -8.926000 413.552000
3.711000 -8.937000 414.067000
4.188000 -8.940000 414.219000
4.670000 -8.952000 414.762000
5.152000 -8.962000 415.222000
5.636000 -8.973000 415.737000
20.394000 -9.878000 457.670000
20.932000 -9.884000 457.962000
21.459000 -9.884000 457.969000
22.000000 -9.891000 458.282000
22.543000 -9.899000 458.636000
31.448000 -9.721000 450.406000
32.033000 -9.742000 451.364000
32.552000 -9.742000 451.370000
33.139000 -9.762000 452.309000
33.663000 -9.763000 452.372000
34.262000 -9.786000 453.426000
34.793000 -9.789000 453.564000
35.399000 -9.813000 454.653000
35.911000 -9.810000 454.527000
36.515000 -9.832000 455.556000
37.043000 -9.833000 455.612000
37.658000 -9.857000 456.724000
38.187000 -9.859000 456.780000
38.814000 -9.885000 457.983000
39.335000 -9.883000 457.928000
39.962000 -9.908000 459.090000
40.469000 -9.903000 458.862000
41.101000 -9.929000 460.037000
41.621000 -9.927000 459.955000
42.250000 -9.951000 461.048000
42.781000 -9.951000 461.069000
43.420000 -9.976000 462.232000
43.930000 -9.972000 462.013000
44.566000 -9.995000 463.112000
45.065000 -9.988000 462.775000
45.697000 -10.010000 463.796000
46.246000 -10.013000 463.958000
46.871000 -10.033000 464.879000
47.371000 -10.026000 464.541000
47.984000 -10.043000 465.321000
48.522000 -10.044000 465.351000
49.127000 -10.058000 466.023000
49.640000 -10.054000 465.816000
50.255000 -10.070000 466.554000
50.747000 -10.061000 466.153000
51.361000 -10.076000 466.876000
51.876000 -10.072000 466.684000
52.472000 -10.084000 467.221000
53.012000 -10.085000 467.252000
53.594000 -10.093000 467.641000
54.112000 -10.089000 467.478000
54.709000 -10.101000 467.995000
55.206000 -10.093000 467.650000
55.817000 -10.107000 468.275000
56.315000 -10.099000 467.943000
56.914000 -10.111000 468.457000
57.460000 -10.112000 468.519000
58.008000 -10.114000 468.601000
58.567000 -10.117000 468.766000
59.109000 -10.118000 468.800000
59.680000 -10.123000 469.054000
60.240000 -10.127000 469.218000
60.792000 -10.129000 469.323000
61.385000 -10.138000 469.740000
61.926000 -10.138000 469.750000
62.501000 -10.144000 470.017000
63.057000 -10.147000 470.139000
63.608000 -10.149000 470.217000
64.181000 -10.154000 470.464000
64.700000 -10.151000 470.310000
65.301000 -10.160000 470.752000
65.925000 -10.173000 471.348000
66.403000 -10.163000 470.899000
67.010000 -10.173000 471.362000
67.548000 -10.173000 471.337000
68.171000 -10.185000 471.907000
68.650000 -10.176000 471.474000
69.237000 -10.182000 471.783000
69.798000 -10.185000 471.918000
70.407000 -10.195000 472.367000
70.951000 -10.195000 472.374000
71.515000 -10.198000 472.520000
72.071000 -10.200000 472.606000
72.669000 -10.208000 472.969000
73.176000 -10.203000 472.735000
73.780000 -10.211000 473.128000
74.284000 -10.206000 472.874000
74.907000 -10.217000 473.380000
75.473000 -10.220000 473.521000
76.043000 -10.223000 473.687000
76.658000 -10.233000 474.123000
77.179000 -10.230000 473.984000
77.825000 -10.243000 474.602000
78.292000 -10.233000 474.129000
78.948000 -10.248000 474.803000
79.405000 -10.236000 474.274000
80.106000 -10.256000 475.203000
80.578000 -10.247000 474.768000
81.268000 -10.265000 475.616000
81.719000 -10.253000 475.062000
82.421000 -10.273000 475.968000
82.862000 -10.260000 475.362000
83.566000 -10.279000 476.265000
84.019000 -10.268000 475.730000
84.709000 -10.285000 476.537000
85.246000 -10.284000 476.481000
85.876000 -10.294000 476.944000
86.423000 -10.294000 476.937000
87.130000 -10.312000 477.812000
87.694000 -10.314000 477.894000
88.379000 -10.330000 478.633000
88.943000 -10.332000 478.715000
89.640000 -10.349000 479.500000
90.312000 -10.363000 480.144000
90.975000 -10.376000 480.738000
91.635000 -10.388000 481.301000
92.313000 -10.402000 481.957000
92.983000 -10.415000 482.560000
-12.921000 -8.456000 413.803000
-12.436000 -8.449000 413.472000
-11.951000 -8.442000 413.122000
-11.467000 -8.435000 412.773000
-10.988000 -8.431000 412.575000
-10.507000 -8.425000 412.277000
-10.026000 -8.419000 411.979000
-9.547000 -8.414000 411.737000
-9.073000 -8.412000 411.667000
-8.595000 -8.407000 411.418000
-8.121000 -8.405000 411.339000
-7.644000 -8.401000 411.102000
-7.172000 -8.401000 411.097000
-6.698000 -8.398000 410.950000
-6.225000 -8.397000 410.911000
-5.753000 -8.396000 410.886000
-5.280000 -8.395000 410.807000
-4.808000 -8.393000 410.706000
-4.337000 -8.394000 410.793000
-3.865000 -8.393000 410.742000
-3.394000 -8.395000 410.817000
-2.922000 -8.395000 410.805000
-2.451000 -8.398000 410.995000
-1.979000 -8.396000 410.898000
-1.508000 -8.401000 411.114000
-1.036000 -8.400000 411.048000
-0.564000 -8.403000 411.211000
-0.092000 -8.405000 411.336000
0.381000 -8.409000 411.516000
0.854000 -8.412000 411.670000
1.328000 -8.419000 412.021000
1.801000 -8.422000 412.127000
2.276000 -8.427000 412.384000
2.751000 -8.433000 412.669000
3.227000 -8.439000 412.970000
3.705000 -8.446000 413.320000
4.183000 -8.453000 413.650000
4.663000 -8.463000 414.153000
5.143000 -8.469000 414.466000
5.625000 -8.479000 414.921000
20.401000 -9.356000 457.840000
20.944000 -9.363000 458.216000
21.475000 -9.365000 458.311000
22.008000 -9.368000 458.448000
22.551000 -9.375000 458.795000
45.610000 -9.459000 462.911000
46.092000 -9.449000 462.416000
46.759000 -9.477000 463.766000
47.264000 -9.471000 463.498000
47.889000 -9.490000 464.400000
48.430000 -9.491000 464.474000
49.036000 -9.505000 465.159000
49.582000 -9.508000 465.268000
50.228000 -9.529000 466.311000
50.695000 -9.516000 465.680000
51.339000 -9.536000 466.669000
51.848000 -9.531000 466.433000
52.454000 -9.544000 467.058000
52.985000 -9.543000 467.012000
53.583000 -9.554000 467.550000
54.105000 -9.552000 467.422000
54.710000 -9.563000 468.002000
55.205000 -9.556000 467.647000
55.838000 -9.573000 468.453000
56.345000 -9.567000 468.193000
56.930000 -9.575000 468.583000
57.494000 -9.580000 468.796000
58.032000 -9.579000 468.791000
58.595000 -9.584000 468.991000
59.136000 -9.584000 469.012000
59.693000 -9.587000 469.159000
60.282000 -9.595000 469.548000
60.817000 -9.594000 469.514000
61.415000 -9.603000 469.965000
61.944000 -9.602000 469.884000
62.516000 -9.607000 470.132000
63.080000 -9.611000 470.312000
63.629000 -9.612000 470.379000
64.192000 -9.615000 470.541000
64.737000 -9.616000 470.581000
65.319000 -9.622000 470.877000
65.972000 -9.639000 471.683000
66.421000 -9.625000 471.026000
67.054000 -9.638000 471.674000
67.565000 -9.634000 471.458000
68.185000 -9.645000 472.001000
68.660000 -9.636000 471.540000
69.252000 -9.643000 471.889000
69.837000 -9.649000 472.182000
70.435000 -9.656000 472.555000
70.963000 -9.654000 472.458000
71.545000 -9.660000 472.714000
72.096000 -9.661000 472.773000
72.693000 -9.668000 473.125000
73.200000 -9.663000 472.886000
73.804000 -9.671000 473.283000
74.332000 -9.669000 473.180000
74.929000 -9.676000 473.522000
75.534000 -9.684000 473.903000
76.068000 -9.683000 473.842000
76.694000 -9.693000 474.349000
77.201000 -9.688000 474.117000
77.846000 -9.701000 474.733000
78.316000 -9.692000 474.273000
78.973000 -9.705000 474.952000
79.449000 -9.697000 474.539000
80.139000 -9.715000 475.399000
80.609000 -9.705000 474.950000
81.294000 -9.722000 475.766000
81.752000 -9.712000 475.257000
82.437000 -9.728000 476.061000
82.881000 -9.716000 475.470000
83.569000 -9.733000 476.281000
84.021000 -9.722000 475.744000
84.714000 -9.738000 476.566000
85.240000 -9.736000 476.450000
85.857000 -9.744000 476.837000
86.385000 -9.742000 476.727000
87.007000 -9.750000 477.139000
87.604000 -9.756000 477.405000
88.238000 -9.765000 477.872000
88.788000 -9.765000 477.876000
89.454000 -9.778000 478.506000
90.056000 -9.784000 478.784000
90.707000 -9.795000 479.318000
91.311000 -9.800000 479.599000
91.954000 -9.810000 480.084000
92.604000 -9.821000 480.597000
93.258000 -9.832000 481.124000
93.947000 -9.846000 481.824000
-13.393000 -7.979000 413.693000
-12.903000 -7.969000 413.222000
-12.420000 -7.964000 412.933000
-11.937000 -7.958000 412.628000
-11.452000 -7.950000 412.236000
-10.973000 -7.946000 411.993000
-10.495000 -7.942000 411.804000
-10.016000 -7.938000 411.569000
-9.536000 -7.931000 411.235000
-9.063000 -7.931000 411.224000
-8.584000 -7.925000 410.895000
-8.112000 -7.925000 410.893000
-7.637000 -7.921000 410.686000
-7.164000 -7.920000 410.632000
-6.690000 -7.916000 410.451000
-6.218000 -7.916000 410.447000
-5.746000 -7.914000 410.347000
-5.276000 -7.916000 410.451000
-4.803000 -7.913000 410.292000
-4.333000 -7.915000 410.397000
-3.860000 -7.913000 410.272000
-3.390000 -7.915000 410.395000
-2.919000 -7.915000 410.383000
-2.449000 -7.918000 410.544000
-1.977000 -7.918000 410.552000
-1.506000 -7.919000 410.607000
-1.035000 -7.920000 410.635000
-0.563000 -7.923000 410.798000
-0.092000 -7.925000 410.890000
0.380000 -7.927000 411.038000
0.853000 -7.932000 411.284000
1.326000 -7.936000 411.484000
1.799000 -7.940000 411.691000
2.273000 -7.944000 411.885000
2.748000 -7.949000 412.149000
3.223000 -7.954000 412.419000
3.700000 -7.961000 412.806000
4.178000 -7.968000 413.145000
4.656000 -7.975000 413.489000
5.135000 -7.981000 413.828000
5.618000 -7.992000 414.414000
6.100000 -8.001000 414.836000
6.586000 -8.012000 415.446000
7.070000 -8.021000 415.873000
7.563000 -8.037000 416.708000
20.411000 -8.834000 458.058000
