108.282000 -87.870000 555.344000
108.941000 -87.887000 555.452000
109.549000 -87.863000 555.298000
110.176000 -87.854000 555.245000
110.842000 -87.877000 555.388000
111.553000 -87.935000 555.753000
112.141000 -87.896000 555.506000
112.736000 -87.862000 555.295000
113.415000 -87.894000 555.495000
114.086000 -87.920000 555.660000
114.732000 -87.926000 555.698000
115.394000 -87.944000 555.809000
115.994000 -87.915000 555.629000
116.687000 -87.956000 555.889000
117.311000 -87.946000 555.821000
118.059000 -88.028000 556.340000
118.648000 -87.991000 556.105000
119.294000 -87.996000 556.140000
119.906000 -87.977000 556.017000
120.619000 -88.031000 556.359000
121.232000 -88.013000 556.245000
121.880000 -88.019000 556.284000
122.499000 -88.005000 556.195000
123.172000 -88.029000 556.350000
123.843000 -88.053000 556.497000
124.484000 -88.054000 556.505000
125.122000 -88.053000 556.499000
125.820000 -88.094000 556.759000
126.442000 -88.082000 556.685000
127.136000 -88.120000 556.925000
127.844000 -88.167000 557.221000
128.410000 -88.116000 556.901000
128.997000 -88.081000 556.675000
129.686000 -88.114000 556.888000
130.384000 -88.154000 557.141000
131.002000 -88.140000 557.047000
131.636000 -88.136000 557.023000
132.288000 -88.144000 557.074000
133.065000 -88.236000 557.654000
133.627000 -88.183000 557.324000
134.299000 -88.205000 557.458000
134.887000 -88.170000 557.242000
135.548000 -88.184000 557.330000
136.163000 -88.168000 557.229000
136.802000 -88.168000 557.225000
137.539000 -88.230000 557.619000
138.522000 -88.449000 559.002000
139.060000 -88.383000 558.584000
139.589000 -88.311000 558.133000
140.182000 -88.281000 557.943000
140.922000 -88.344000 558.336000
141.570000 -88.348000 558.364000
142.138000 -88.302000 558.077000
142.812000 -88.323000 558.206000
143.525000 -88.367000 558.487000
144.250000 -88.419000 558.812000
144.934000 -88.445000 558.976000
145.689000 -88.513000 559.408000
146.391000 -88.549000 559.636000
147.166000 -88.629000 560.140000
147.860000 -88.660000 560.335000
148.642000 -88.743000 560.858000
149.316000 -88.760000 560.967000
150.095000 -88.840000 561.475000
150.782000 -88.865000 561.631000
151.577000 -88.953000 562.189000
152.259000 -88.974000 562.321000
153.038000 -89.052000 562.813000
153.735000 -89.081000 562.998000
154.515000 -89.158000 563.484000
155.302000 -89.239000 563.994000
156.034000 -89.287000 564.299000
156.789000 -89.348000 564.685000
157.515000 -89.392000 564.961000
158.607000 -89.642000 566.545000
159.492000 -89.774000 567.378000
159.802000 -89.583000 566.169000
160.389000 -89.548000 565.949000
160.847000 -89.441000 565.274000
161.256000 -89.308000 564.432000
161.743000 -89.219000 563.872000
162.175000 -89.101000 563.124000
162.664000 -89.015000 562.578000
163.109000 -88.905000 561.884000
163.677000 -88.863000 561.622000
164.119000 -88.753000 560.926000
164.670000 -88.704000 560.611000
165.178000 -88.630000 560.149000
165.731000 -88.582000 559.844000
166.233000 -88.507000 559.370000
166.804000 -88.469000 559.131000
167.303000 -88.394000 558.654000
167.901000 -88.371000 558.510000
168.415000 -88.304000 558.087000
168.994000 -88.272000 557.884000
169.570000 -88.239000 557.673000
170.105000 -88.184000 557.326000
170.778000 -88.201000 557.434000
171.301000 -88.141000 557.053000
171.962000 -88.152000 557.123000
172.478000 -88.088000 556.723000
173.148000 -88.104000 556.821000
173.672000 -88.046000 556.453000
174.394000 -88.087000 556.717000
174.966000 -88.053000 556.503000
175.650000 -88.076000 556.647000
176.224000 -88.044000 556.440000
176.908000 -88.066000 556.582000
177.539000 -88.062000 556.556000
178.210000 -88.078000 556.655000
178.910000 -88.108000 556.845000
179.577000 -88.121000 556.932000
180.309000 -88.166000 557.217000
180.953000 -88.169000 557.231000
181.687000 -88.214000 557.518000
182.364000 -88.232000 557.630000
183.198000 -88.325000 558.222000
183.937000 -88.372000 558.519000
184.752000 -88.456000 559.045000
185.474000 -88.494000 559.287000
186.330000 -88.595000 559.928000
187.180000 -88.693000 560.548000
188.262000 -88.900000 561.856000
13.826000 -86.737000 552.190000
14.447000 -86.659000 551.696000
15.071000 -86.601000 551.325000
15.688000 -86.514000 550.769000
16.311000 -86.464000 550.452000
16.932000 -86.405000 550.075000
17.547000 -86.323000 549.556000
18.175000 -86.311000 549.480000
18.792000 -86.247000 549.071000
19.415000 -86.215000 548.865000
20.035000 -86.171000 548.589000
20.657000 -86.135000 548.355000
21.278000 -86.100000 548.135000
21.906000 -86.096000 548.109000
22.524000 -86.054000 547.843000
23.153000 -86.051000 547.821000
23.769000 -86.003000 547.520000
24.409000 -86.046000 547.789000
25.021000 -85.986000 547.408000
25.661000 -86.024000 547.652000
26.275000 -85.976000 547.347000
26.915000 -86.013000 547.583000
27.536000 -85.990000 547.435000
28.180000 -86.035000 547.719000
28.799000 -86.006000 547.536000
29.440000 -86.042000 547.766000
30.073000 -86.054000 547.844000
30.717000 -86.095000 548.105000
31.343000 -86.087000 548.053000
31.996000 -86.150000 548.452000
32.628000 -86.155000 548.486000
33.286000 -86.228000 548.951000
33.914000 -86.224000 548.923000
34.586000 -86.327000 549.577000
35.223000 -86.342000 549.676000
35.894000 -86.437000 550.278000
36.534000 -86.457000 550.409000
37.213000 -86.566000 551.099000
37.870000 -86.621000 551.451000
38.556000 -86.739000 552.204000
39.214000 -86.792000 552.540000
39.914000 -86.937000 553.460000
40.597000 -87.038000 554.106000
41.324000 -87.229000 555.321000
42.015000 -87.340000 556.030000
42.782000 -87.603000 557.702000
43.562000 -87.885000 559.495000
44.184000 -87.843000 559.231000
44.762000 -87.718000 558.438000
45.350000 -87.615000 557.781000
45.929000 -87.499000 557.039000
46.587000 -87.532000 557.251000
47.211000 -87.503000 557.066000
47.840000 -87.485000 556.950000
48.444000 -87.421000 556.542000
49.080000 -87.414000 556.498000
49.690000 -87.363000 556.178000
50.329000 -87.364000 556.179000
50.934000 -87.307000 555.819000
51.572000 -87.305000 555.809000
52.181000 -87.258000 555.504000
52.816000 -87.252000 555.472000
53.426000 -87.207000 555.180000
54.061000 -87.202000 555.153000
54.685000 -87.182000 555.023000
55.310000 -87.162000 554.893000
55.938000 -87.148000 554.808000
56.593000 -87.175000 554.977000
57.223000 -87.165000 554.912000
57.820000 -87.104000 554.525000
58.397000 -87.015000 553.962000
59.020000 -86.996000 553.838000
59.618000 -86.940000 553.480000
60.257000 -86.945000 553.511000
60.852000 -86.887000 553.142000
61.493000 -86.896000 553.201000
62.101000 -86.857000 552.956000
62.837000 -86.998000 553.849000
63.431000 -86.940000 553.483000
64.008000 -86.860000 552.974000
64.615000 -86.822000 552.733000
65.290000 -86.876000 553.078000
65.930000 -86.882000 553.114000
66.549000 -86.861000 552.982000
67.242000 -86.937000 553.460000
67.877000 -86.936000 553.460000
68.473000 -86.885000 553.135000
69.087000 -86.859000 552.966000
69.752000 -86.897000 553.207000
70.387000 -86.897000 553.209000
71.035000 -86.912000 553.304000
71.663000 -86.904000 553.252000
72.315000 -86.923000 553.375000
72.922000 -86.889000 553.161000
73.577000 -86.912000 553.306000
74.225000 -86.928000 553.403000
74.883000 -86.954000 553.569000
75.503000 -86.936000 553.459000
76.147000 -86.945000 553.514000
76.782000 -86.945000 553.515000
77.433000 -86.963000 553.626000
78.071000 -86.964000 553.637000
78.706000 -86.964000 553.638000
79.345000 -86.968000 553.659000
79.964000 -86.949000 553.542000
80.611000 -86.961000 553.619000
81.257000 -86.972000 553.688000
81.913000 -86.994000 553.828000
82.563000 -87.009000 553.922000
83.202000 -87.012000 553.939000
83.816000 -86.989000 553.795000
84.445000 -86.982000 553.750000
85.102000 -87.004000 553.889000
85.725000 -86.990000 553.802000
86.365000 -86.994000 553.829000
87.016000 -87.010000 553.927000
87.727000 -87.084000 554.400000
88.327000 -87.048000 554.172000
88.956000 -87.041000 554.123000
89.569000 -87.018000 553.980000
90.224000 -87.036000 554.096000
90.859000 -87.035000 554.085000
91.520000 -87.058000 554.235000
94.103000 -87.093000 554.457000
94.709000 -87.065000 554.276000
95.377000 -87.094000 554.464000
95.983000 -87.066000 554.285000
96.627000 -87.073000 554.330000
97.235000 -87.048000 554.168000
97.945000 -87.112000 554.580000
98.555000 -87.089000 554.431000
99.213000 -87.108000 554.551000
99.860000 -87.117000 554.610000
100.530000 -87.145000 554.790000
101.165000 -87.143000 554.777000
101.807000 -87.148000 554.807000
102.461000 -87.162000 554.898000
103.066000 -87.135000 554.725000
103.689000 -87.124000 554.652000
104.319000 -87.118000 554.616000
105.011000 -87.164000 554.908000
105.649000 -87.164000 554.911000
106.273000 -87.154000 554.843000
106.900000 -87.145000 554.786000
107.582000 -87.182000 555.023000
108.225000 -87.186000 555.049000
108.879000 -87.199000 555.134000
109.514000 -87.198000 555.122000
110.169000 -87.211000 555.210000
110.836000 -87.234000 555.356000
111.499000 -87.254000 555.482000
112.092000 -87.220000 555.263000
112.725000 -87.216000 555.238000
113.371000 -87.222000 555.280000
114.038000 -87.245000 555.423000
114.694000 -87.259000 555.511000
115.393000 -87.305000 555.807000
116.011000 -87.290000 555.712000
116.720000 -87.343000 556.047000
117.328000 -87.321000 555.905000
118.016000 -87.357000 556.135000
118.655000 -87.357000 556.140000
119.337000 -87.389000 556.340000
119.930000 -87.356000 556.130000
120.580000 -87.364000 556.180000
121.220000 -87.365000 556.186000
121.891000 -87.388000 556.334000
122.483000 -87.355000 556.124000
123.138000 -87.366000 556.197000
123.825000 -87.400000 556.414000
124.497000 -87.424000 556.562000
125.103000 -87.401000 556.415000
125.755000 -87.410000 556.474000
126.382000 -87.401000 556.419000
127.085000 -87.445000 556.699000
127.798000 -87.496000 557.024000
128.405000 -87.474000 556.880000
128.988000 -87.436000 556.639000
129.645000 -87.448000 556.714000
130.358000 -87.497000 557.029000
130.993000 -87.494000 557.011000
131.659000 -87.512000 557.121000
132.274000 -87.495000 557.015000
132.963000 -87.528000 557.226000
133.560000 -87.500000 557.047000
134.242000 -87.527000 557.219000
134.907000 -87.544000 557.324000
135.579000 -87.564000 557.458000
136.161000 -87.527000 557.219000
136.800000 -87.527000 557.218000
137.548000 -87.595000 557.653000
138.522000 -87.807000 559.001000
139.038000 -87.727000 558.495000
139.543000 -87.642000 557.949000
140.147000 -87.619000 557.802000
140.858000 -87.663000 558.085000
141.506000 -87.667000 558.110000
142.105000 -87.642000 557.949000
142.772000 -87.658000 558.051000
143.496000 -87.709000 558.376000
144.210000 -87.753000 558.657000
144.910000 -87.788000 558.883000
145.650000 -87.848000 559.260000
146.330000 -87.870000 559.404000
147.113000 -87.954000 559.939000
147.777000 -87.967000 560.018000
148.590000 -88.068000 560.661000
149.237000 -88.069000 560.672000
150.032000 -88.158000 561.237000
150.711000 -88.179000 561.368000
151.503000 -88.264000 561.914000
152.180000 -88.283000 562.029000
152.967000 -88.365000 562.553000
153.645000 -88.383000 562.669000
154.414000 -88.453000 563.116000
155.185000 -88.525000 563.570000
155.945000 -88.588000 563.977000
156.718000 -88.659000 564.428000
157.212000 -88.572000 563.874000
160.737000 -88.732000 564.888000
161.159000 -88.607000 564.093000
161.662000 -88.528000 563.590000
162.112000 -88.420000 562.906000
162.618000 -88.344000 562.419000
163.063000 -88.235000 561.726000
163.620000 -88.188000 561.425000
164.072000 -88.084000 560.768000
164.631000 -88.039000 560.477000
165.114000 -87.953000 559.933000
165.643000 -87.893000 559.549000
166.159000 -87.826000 559.122000
166.742000 -87.795000 558.924000
167.252000 -87.726000 558.485000
167.842000 -87.699000 558.312000
168.371000 -87.640000 557.941000
168.927000 -87.597000 557.662000
169.529000 -87.577000 557.535000
170.062000 -87.522000 557.184000
170.722000 -87.532000 557.250000
171.254000 -87.477000 556.899000
171.915000 -87.488000 556.970000
172.425000 -87.422000 556.551000
173.097000 -87.439000 556.658000
173.621000 -87.381000 556.290000
174.314000 -87.408000 556.463000
174.877000 -87.370000 556.220000
175.585000 -87.405000 556.441000
176.164000 -87.375000 556.251000
176.823000 -87.385000 556.316000
177.449000 -87.379000 556.275000
178.119000 -87.394000 556.373000
178.831000 -87.430000 556.601000
179.478000 -87.434000 556.626000
180.219000 -87.483000 556.938000
180.856000 -87.482000 556.932000
181.627000 -87.545000 557.335000
182.292000 -87.557000 557.410000
183.102000 -87.639000 557.929000
183.813000 -87.672000 558.144000
184.662000 -87.771000 558.771000
185.344000 -87.790000 558.895000
186.277000 -87.928000 559.770000
187.120000 -88.022000 560.369000
188.075000 -88.168000 561.298000
15.080000 -86.018000 551.647000
15.699000 -85.941000 551.149000
16.325000 -85.905000 550.923000
16.942000 -85.824000 550.400000
17.558000 -85.749000 549.917000
18.184000 -85.722000 549.747000
18.801000 -85.655000 549.319000
19.426000 -85.634000 549.182000
20.047000 -85.592000 548.911000
20.669000 -85.557000 548.686000
21.290000 -85.520000 548.451000
21.916000 -85.504000 548.350000
22.533000 -85.456000 548.042000
23.163000 -85.459000 548.063000
23.781000 -85.420000 547.808000
24.418000 -85.448000 547.990000
25.028000 -85.382000 547.565000
25.671000 -85.429000 547.866000
26.289000 -85.393000 547.637000
26.931000 -85.435000 547.904000
27.548000 -85.399000 547.673000
28.192000 -85.444000 547.964000
28.813000 -85.419000 547.803000
29.458000 -85.466000 548.108000
30.089000 -85.469000 548.125000
30.732000 -85.507000 548.370000
31.359000 -85.500000 548.325000
32.012000 -85.562000 548.722000
32.644000 -85.569000 548.763000
33.307000 -85.654000 549.308000
33.934000 -85.644000 549.244000
34.605000 -85.743000 549.881000
35.243000 -85.758000 549.977000
35.915000 -85.856000 550.605000
36.561000 -85.888000 550.810000
37.240000 -85.995000 551.495000
37.896000 -86.047000 551.833000
38.583000 -86.167000 552.602000
39.239000 -86.212000 552.891000
39.946000 -86.370000 553.900000
40.619000 -86.448000 554.403000
41.353000 -86.653000 555.716000
42.051000 -86.775000 556.503000
42.884000 -87.170000 559.033000
43.597000 -87.312000 559.943000
44.202000 -87.238000 559.467000
44.773000 -87.099000 558.578000
45.368000 -87.009000 558.003000
45.954000 -86.906000 557.337000
46.617000 -86.950000 557.620000
47.236000 -86.909000 557.362000
47.871000 -86.901000 557.305000
48.471000 -86.829000 556.849000
49.108000 -86.824000 556.815000
49.716000 -86.771000 556.472000
50.363000 -86.785000 556.562000
50.964000 -86.719000 556.138000
51.603000 -86.720000 556.147000
52.207000 -86.662000 555.777000
52.843000 -86.658000 555.750000
53.455000 -86.617000 555.486000
54.089000 -86.611000 555.447000
54.712000 -86.588000 555.298000
55.363000 -86.608000 555.429000
56.034000 -86.659000 555.753000
56.733000 -86.753000 556.357000
57.345000 -86.711000 556.090000
57.926000 -86.626000 555.545000
58.485000 -86.509000 554.796000
59.064000 -86.424000 554.248000
59.646000 -86.345000 553.740000
60.272000 -86.331000 553.653000
60.879000 -86.290000 553.387000
61.520000 -86.298000 553.440000
62.135000 -86.270000 553.260000
62.846000 -86.374000 553.928000
63.440000 -86.317000 553.562000
64.041000 -86.270000 553.264000
64.683000 -86.279000 553.319000
65.346000 -86.315000 553.552000
65.968000 -86.298000 553.439000
66.564000 -86.246000 553.110000
67.248000 -86.309000 553.514000
67.889000 -86.316000 553.558000
68.512000 -86.300000 553.454000
69.123000 -86.269000 553.256000
69.751000 -86.261000 553.202000
70.406000 -86.285000 553.358000
71.056000 -86.302000 553.469000
71.684000 -86.293000 553.412000
72.347000 -86.326000 553.622000
72.989000 -86.333000 553.667000
73.609000 -86.315000 553.551000
74.224000 -86.291000 553.397000
74.866000 -86.299000 553.444000
75.544000 -86.347000 553.755000
76.184000 -86.352000 553.786000
76.814000 -86.345000 553.744000
77.454000 -86.350000 553.773000
78.096000 -86.356000 553.814000
78.715000 -86.339000 553.701000
79.349000 -86.336000 553.683000
79.985000 -86.336000 553.687000
80.634000 -86.350000 553.777000
81.296000 -86.379000 553.959000
81.921000 -86.367000 553.882000
82.583000 -86.394000 554.053000
83.208000 -86.382000 553.978000
83.860000 -86.399000 554.087000
84.480000 -86.382000 553.982000
85.121000 -86.387000 554.012000
85.746000 -86.376000 553.940000
86.425000 -86.418000 554.214000
87.052000 -86.409000 554.154000
87.738000 -86.458000 554.466000
88.334000 -86.418000 554.212000
88.983000 -86.431000 554.295000
89.612000 -86.423000 554.245000
90.258000 -86.432000 554.303000
90.895000 -86.433000 554.309000
91.552000 -86.453000 554.432000
97.251000 -86.425000 554.257000
97.967000 -86.496000 554.710000
98.567000 -86.463000 554.498000
99.226000 -86.483000 554.626000
99.860000 -86.480000 554.610000
100.573000 -86.545000 555.028000
101.166000 -86.507000 554.784000
101.825000 -86.526000 554.905000
102.450000 -86.516000 554.841000
103.101000 -86.528000 554.913000
103.672000 -86.472000 554.558000
104.327000 -86.487000 554.655000
105.005000 -86.522000 554.875000
105.659000 -86.535000 554.960000
106.242000 -86.491000 554.681000
106.858000 -86.474000 554.573000
107.528000 -86.501000 554.742000
108.169000 -86.504000 554.760000
108.815000 -86.511000 554.807000
109.463000 -86.520000 554.862000
110.145000 -86.555000 555.090000
110.769000 -86.544000 555.021000
111.457000 -86.584000 555.274000
112.029000 -86.533000 554.950000
112.703000 -86.562000 555.133000
113.325000 -86.550000 555.056000
114.057000 -86.622000 555.517000
114.691000 -86.619000 555.499000
115.390000 -86.665000 555.794000
116.007000 -86.649000 555.690000
116.759000 -86.734000 556.235000
117.366000 -86.710000 556.082000
118.037000 -86.734000 556.238000
118.636000 -86.705000 556.050000
119.337000 -86.750000 556.340000
119.921000 -86.710000 556.086000
120.585000 -86.729000 556.204000
121.228000 -86.732000 556.225000
121.876000 -86.739000 556.267000
122.471000 -86.708000 556.069000
123.131000 -86.723000 556.167000
123.798000 -86.743000 556.294000
124.449000 -86.752000 556.350000
125.078000 -86.744000 556.303000
125.764000 -86.777000 556.511000
126.408000 -86.780000 556.534000
127.039000 -86.775000 556.501000
127.728000 -86.809000 556.716000
128.419000 -86.844000 556.943000
129.041000 -86.832000 556.865000
129.660000 -86.819000 556.780000
130.315000 -86.829000 556.844000
130.999000 -86.858000 557.034000
131.621000 -86.847000 556.960000
132.256000 -86.844000 556.942000
132.885000 -86.837000 556.897000
133.536000 -86.844000 556.944000
134.200000 -86.860000 557.047000
134.919000 -86.911000 557.375000
135.511000 -86.881000 557.179000
136.149000 -86.880000 557.172000
136.826000 -86.903000 557.322000
137.543000 -86.952000 557.635000
138.464000 -87.128000 558.766000
138.999000 -87.062000 558.340000
139.483000 -86.963000 557.708000
140.106000 -86.953000 557.642000
140.823000 -87.000000 557.946000
141.457000 -86.996000 557.919000
142.059000 -86.973000 557.768000
142.753000 -87.005000 557.978000
143.482000 -87.059000 558.320000
144.203000 -87.107000 558.629000
144.912000 -87.148000 558.891000
145.616000 -87.185000 559.129000
146.314000 -87.218000 559.342000
147.080000 -87.292000 559.813000
147.748000 -87.306000 559.907000
148.539000 -87.394000 560.468000
149.175000 -87.389000 560.439000
149.978000 -87.482000 561.036000
150.638000 -87.492000 561.096000
151.447000 -87.587000 561.707000
152.110000 -87.597000 561.771000
152.898000 -87.679000 562.299000
153.558000 -87.687000 562.350000
154.349000 -87.770000 562.880000
155.064000 -87.809000 563.131000
155.860000 -87.893000 563.669000
156.591000 -87.940000 563.971000
157.163000 -87.898000 563.700000
160.637000 -88.028000 564.535000
161.072000 -87.911000 563.788000
161.579000 -87.835000 563.298000
162.002000 -87.714000 562.523000
162.534000 -87.653000 562.129000
162.979000 -87.545000 561.439000
163.524000 -87.491000 561.094000
163.995000 -87.399000 560.503000
164.552000 -87.353000 560.209000
165.066000 -87.285000 559.769000
165.608000 -87.232000 559.429000
166.104000 -87.155000 558.936000
166.712000 -87.137000 558.822000
167.207000 -87.061000 558.333000
167.760000 -87.015000 558.040000
168.315000 -86.971000 557.757000
168.864000 -86.924000 557.455000
169.466000 -86.904000 557.330000
170.002000 -86.851000 556.988000
170.668000 -86.865000 557.075000
171.179000 -86.800000 556.658000
171.859000 -86.820000 556.789000
172.367000 -86.754000 556.365000
173.024000 -86.763000 556.424000
173.556000 -86.709000 556.080000
174.261000 -86.743000 556.293000
174.820000 -86.703000 556.038000
175.493000 -86.720000 556.148000
176.097000 -86.703000 556.040000
176.768000 -86.719000 556.140000
177.394000 -86.713000 556.104000
178.045000 -86.719000 556.142000
178.760000 -86.756000 556.378000
179.426000 -86.769000 556.462000
180.131000 -86.801000 556.667000
180.774000 -86.803000 556.677000
181.563000 -86.875000 557.138000
182.257000 -86.900000 557.303000
183.039000 -86.968000 557.737000
183.732000 -86.993000 557.898000
184.553000 -87.078000 558.442000
185.271000 -87.114000 558.674000
186.220000 -87.258000 559.599000
187.002000 -87.323000 560.016000
187.952000 -87.466000 560.932000
188.754000 -87.539000 561.402000
15.089000 -85.440000 552.003000
15.708000 -85.359000 551.478000
16.331000 -85.303000 551.118000
16.950000 -85.234000 550.675000
17.572000 -85.183000 550.345000
18.195000 -85.143000 550.086000
18.815000 -85.088000 549.731000
19.440000 -85.061000 549.552000
20.060000 -85.017000 549.272000
20.683000 -84.985000 549.063000
21.303000 -84.942000 548.785000
21.928000 -84.924000 548.667000
22.547000 -84.881000 548.392000
23.177000 -84.884000 548.409000
23.797000 -84.847000 548.169000
24.431000 -84.863000 548.273000
25.046000 -84.812000 547.949000
25.685000 -84.848000 548.178000
26.305000 -84.816000 547.972000
26.947000 -84.855000 548.224000
27.566000 -84.825000 548.030000
28.208000 -84.863000 548.278000
28.832000 -84.847000 548.170000
29.478000 -84.893000 548.470000
30.106000 -84.887000 548.431000
30.755000 -84.941000 548.777000
31.381000 -84.931000 548.717000
32.035000 -84.993000 549.116000
32.663000 -84.986000 549.073000
33.336000 -85.095000 549.774000
33.959000 -85.076000 549.651000
34.624000 -85.159000 550.189000
35.263000 -85.175000 550.294000
35.934000 -85.268000 550.892000
36.588000 -85.319000 551.220000
37.260000 -85.409000 551.803000
37.921000 -85.469000 552.188000
38.612000 -85.596000 553.009000
39.273000 -85.652000 553.373000
39.988000 -85.824000 554.482000
40.663000 -85.905000 555.007000
41.382000 -86.074000 556.098000
42.092000 -86.220000 557.040000
42.911000 -86.583000 559.389000
43.639000 -86.753000 560.484000
44.219000 -86.628000 559.681000
44.798000 -86.505000 558.886000
45.387000 -86.405000 558.236000
45.995000 -86.344000 557.842000
46.643000 -86.356000 557.924000
47.265000 -86.322000 557.703000
47.892000 -86.299000 557.550000
48.497000 -86.235000 557.140000
49.135000 -86.233000 557.130000
49.740000 -86.173000 556.741000
50.387000 -86.186000 556.825000
50.993000 -86.130000 556.462000
51.632000 -86.130000 556.460000
52.231000 -86.064000 556.036000
52.870000 -86.065000 556.041000
53.481000 -86.020000 555.750000
54.118000 -86.019000 555.743000
54.769000 -86.039000 555.871000
55.471000 -86.137000 556.506000
56.187000 -86.256000 557.277000
56.887000 -86.347000 557.860000
57.469000 -86.259000 557.297000
58.045000 -86.165000 556.684000
58.578000 -86.008000 555.674000
59.123000 -85.873000 554.798000
59.684000 -85.763000 554.091000
60.304000 -85.740000 553.944000
60.908000 -85.695000 553.651000
61.553000 -85.708000 553.734000
62.184000 -85.702000 553.697000
62.868000 -85.768000 554.121000
63.438000 -85.678000 553.540000
64.044000 -85.639000 553.288000
64.679000 -85.638000 553.280000
65.377000 -85.721000 553.816000
66.035000 -85.749000 554.000000
66.676000 -85.755000 554.037000
67.258000 -85.687000 553.597000
67.829000 -85.604000 553.064000
68.468000 -85.609000 553.096000
69.137000 -85.651000 553.369000
69.798000 -85.683000 553.573000
70.467000 -85.723000 553.833000
71.083000 -85.699000 553.676000
71.726000 -85.708000 553.732000
72.392000 -85.744000 553.969000
73.049000 -85.768000 554.125000
73.642000 -85.718000 553.797000
74.254000 -85.690000 553.621000
74.894000 -85.696000 553.655000
75.567000 -85.737000 553.925000
76.198000 -85.731000 553.885000
76.827000 -85.724000 553.840000
77.490000 -85.754000 554.033000
78.131000 -85.759000 554.067000
78.732000 -85.721000 553.816000
79.339000 -85.690000 553.618000
80.013000 -85.731000 553.883000
80.693000 -85.777000 554.182000
81.324000 -85.772000 554.148000
81.930000 -85.740000 553.939000
82.580000 -85.755000 554.036000
83.245000 -85.784000 554.224000
83.891000 -85.794000 554.288000
84.490000 -85.756000 554.045000
85.095000 -85.725000 553.842000
85.790000 -85.784000 554.225000
86.473000 -85.830000 554.521000
87.072000 -85.793000 554.283000
87.709000 -85.793000 554.287000
88.333000 -85.781000 554.205000
89.018000 -85.828000 554.509000
89.644000 -85.818000 554.443000
90.295000 -85.831000 554.532000
90.914000 -85.814000 554.422000
91.591000 -85.852000 554.666000
97.266000 -85.802000 554.342000
98.010000 -85.896000 554.949000
98.593000 -85.849000 554.646000
99.303000 -85.912000 555.054000
99.901000 -85.878000 554.835000
100.619000 -85.947000 555.280000
101.240000 -85.933000 555.189000
101.856000 -85.915000 555.074000
102.456000 -85.884000 554.872000
103.140000 -85.923000 555.121000
103.696000 -85.856000 554.690000
104.355000 -85.874000 554.808000
105.027000 -85.902000 554.990000
105.685000 -85.919000 555.099000
106.259000 -85.868000 554.769000
106.890000 -85.863000 554.736000
107.532000 -85.867000 554.761000
108.209000 -85.899000 554.967000
108.829000 -85.885000 554.880000
109.462000 -85.882000 554.857000
110.128000 -85.905000 555.005000
110.785000 -85.919000 555.101000
111.465000 -85.953000 555.316000
112.089000 -85.942000 555.245000
112.692000 -85.916000 555.078000
113.359000 -85.938000 555.220000
114.064000 -85.989000 555.549000
114.706000 -85.992000 555.572000
115.345000 -85.993000 555.576000
115.993000 -86.001000 555.626000
116.727000 -86.071000 556.080000
117.368000 -86.073000 556.094000
118.009000 -86.075000 556.103000
118.605000 -86.044000 555.903000
119.284000 -86.073000 556.095000
119.881000 -86.044000 555.902000
120.552000 -86.067000 556.051000
121.268000 -86.121000 556.406000
121.851000 -86.082000 556.154000
122.420000 -86.033000 555.836000
123.122000 -86.078000 556.123000
123.809000 -86.112000 556.344000
124.428000 -86.098000 556.253000
125.074000 -86.103000 556.286000
125.750000 -86.129000 556.452000
126.408000 -86.142000 556.536000
127.037000 -86.135000 556.491000
127.726000 -86.168000 556.709000
128.430000 -86.212000 556.989000
129.049000 -86.198000 556.901000
129.630000 -86.159000 556.650000
130.290000 -86.173000 556.740000
130.967000 -86.198000 556.898000
131.608000 -86.199000 556.906000
132.179000 -86.154000 556.618000
132.866000 -86.185000 556.817000
133.523000 -86.196000 556.889000
134.263000 -86.261000 557.307000
134.849000 -86.226000 557.084000
135.468000 -86.214000 557.002000
136.158000 -86.245000 557.205000
136.834000 -86.268000 557.354000
137.520000 -86.297000 557.540000
138.403000 -86.449000 558.519000
138.964000 -86.399000 558.198000
139.419000 -86.284000 557.453000
140.104000 -86.311000 557.633000
140.825000 -86.361000 557.954000
141.419000 -86.332000 557.767000
142.042000 -86.322000 557.701000
142.754000 -86.365000 557.981000
143.443000 -86.394000 558.169000
144.182000 -86.453000 558.548000
144.876000 -86.484000 558.750000
145.604000 -86.536000 559.082000
146.290000 -86.562000 559.251000
147.060000 -86.637000 559.736000
147.733000 -86.655000 559.853000
148.491000 -86.722000 560.288000
149.146000 -86.729000 560.331000
149.911000 -86.800000 560.787000
150.597000 -86.824000 560.942000
151.378000 -86.902000 561.451000
152.078000 -86.934000 561.655000
152.828000 -86.994000 562.040000
153.491000 -87.003000 562.105000
154.271000 -87.080000 562.597000
154.985000 -87.118000 562.844000
155.783000 -87.203000 563.392000
156.523000 -87.255000 563.727000
157.102000 -87.216000 563.481000
160.545000 -87.330000 564.211000
160.992000 -87.221000 563.509000
161.476000 -87.133000 562.940000
161.926000 -87.027000 562.258000
162.469000 -86.972000 561.903000
162.913000 -86.865000 561.210000
163.453000 -86.809000 560.851000
163.941000 -86.727000 560.318000
164.503000 -86.684000 560.041000
164.994000 -86.604000 559.527000
165.564000 -86.566000 559.280000
166.065000 -86.493000 558.806000
166.621000 -86.449000 558.519000
167.140000 -86.385000 558.110000
167.708000 -86.348000 557.868000
168.273000 -86.309000 557.617000
168.840000 -86.271000 557.375000
169.441000 -86.252000 557.247000
169.927000 -86.174000 556.743000
170.616000 -86.199000 556.907000
171.131000 -86.136000 556.501000
171.805000 -86.154000 556.614000
172.321000 -86.092000 556.216000
172.993000 -86.109000 556.325000
173.512000 -86.049000 555.941000
174.191000 -86.069000 556.069000
174.792000 -86.051000 555.951000
175.460000 -86.065000 556.044000
176.036000 -86.035000 555.846000
176.706000 -86.051000 555.948000
177.353000 -86.054000 555.972000
178.018000 -86.067000 556.055000
178.706000 -86.091000 556.211000
179.360000 -86.099000 556.259000
180.109000 -86.151000 556.599000
180.752000 -86.153000 556.610000
181.523000 -86.216000 557.014000
182.161000 -86.215000 557.012000
182.960000 -86.290000 557.497000
183.669000 -86.323000 557.705000
184.524000 -86.423000 558.356000
185.202000 -86.440000 558.465000
186.149000 -86.582000 559.384000
186.817000 -86.595000 559.463000
187.849000 -86.774000 560.624000
188.696000 -86.868000 561.230000
15.099000 -84.860000 552.354000
15.720000 -84.786000 551.874000
16.342000 -84.729000 551.499000
16.960000 -84.652000 551.002000
17.584000 -84.609000 550.723000
18.209000 -84.574000 550.494000
18.827000 -84.513000 550.098000
19.452000 -84.483000 549.901000
20.072000 -84.433000 549.577000
20.697000 -84.410000 549.425000
21.319000 -84.375000 549.198000
21.944000 -84.354000 549.062000
22.565000 -84.320000 548.836000
23.192000 -84.305000 548.743000
23.815000 -84.283000 548.599000
24.442000 -84.273000 548.532000
25.065000 -84.248000 548.368000
25.701000 -84.268000 548.503000
26.322000 -84.239000 548.315000
26.962000 -84.274000 548.537000
27.586000 -84.256000 548.420000
28.226000 -84.286000 548.618000
28.854000 -84.280000 548.578000
29.495000 -84.313000 548.792000
30.122000 -84.304000 548.738000
30.774000 -84.364000 549.127000
31.400000 -84.352000 549.045000
32.057000 -84.421000 549.496000
32.684000 -84.411000 549.434000
33.352000 -84.505000 550.045000
33.984000 -84.506000 550.050000
34.647000 -84.581000 550.540000
35.292000 -84.614000 550.751000
35.964000 -84.706000 551.353000
36.613000 -84.742000 551.589000
37.297000 -84.859000 552.348000
37.947000 -84.894000 552.576000
38.648000 -85.039000 553.520000
39.317000 -85.113000 554.001000
40.029000 -85.274000 555.051000
40.711000 -85.367000 555.653000
41.448000 -85.572000 556.988000
47.303000 -85.752000 558.158000
47.928000 -85.722000 557.964000
48.529000 -85.652000 557.512000
49.167000 -85.649000 557.490000
49.773000 -85.590000 557.103000
50.426000 -85.612000 557.251000
51.024000 -85.543000 556.800000
51.668000 -85.550000 556.843000
52.260000 -85.473000 556.344000
52.901000 -85.476000 556.365000
53.505000 -85.420000 555.998000
54.139000 -85.414000 555.961000
54.816000 -85.474000 556.348000
55.528000 -85.586000 557.081000
56.245000 -85.704000 557.845000
56.937000 -85.782000 558.357000
57.523000 -85.700000 557.822000
58.105000 -85.613000 557.253000
58.640000 -85.461000 556.264000
59.177000 -85.313000 555.304000
59.725000 -85.186000 554.474000
60.329000 -85.140000 554.177000
60.939000 -85.103000 553.934000
61.568000 -85.094000 553.877000
62.231000 -85.131000 554.116000
62.899000 -85.173000 554.390000
63.450000 -85.058000 553.644000
64.066000 -85.033000 553.478000
64.696000 -85.026000 553.432000
65.396000 -85.110000 553.979000
66.075000 -85.165000 554.336000
66.722000 -85.178000 554.422000
67.277000 -85.075000 553.753000
67.825000 -84.964000 553.031000
68.468000 -84.974000 553.097000
69.176000 -85.064000 553.681000
69.845000 -85.105000 553.948000
70.493000 -85.119000 554.037000
71.124000 -85.113000 554.001000
71.783000 -85.140000 554.176000
72.428000 -85.150000 554.243000
73.050000 -85.133000 554.132000
73.664000 -85.107000 553.962000
74.338000 -85.151000 554.249000
74.972000 -85.148000 554.226000
75.559000 -85.092000 553.867000
76.160000 -85.053000 553.611000
76.813000 -85.073000 553.740000
77.533000 -85.165000 554.337000
78.174000 -85.170000 554.369000
78.791000 -85.148000 554.230000
79.419000 -85.140000 554.176000
80.087000 -85.173000 554.391000
80.712000 -85.161000 554.314000
81.314000 -85.125000 554.078000
81.927000 -85.101000 553.924000
82.604000 -85.144000 554.199000
83.284000 -85.188000 554.487000
83.972000 -85.240000 554.827000
84.521000 -85.151000 554.245000
85.130000 -85.124000 554.069000
85.775000 -85.132000 554.124000
86.547000 -85.266000 554.994000
87.123000 -85.206000 554.604000
87.798000 -85.243000 554.845000
88.360000 -85.171000 554.379000
89.054000 -85.226000 554.737000
89.661000 -85.197000 554.550000
90.350000 -85.246000 554.868000
90.940000 -85.202000 554.580000
91.611000 -85.234000 554.790000
92.190000 -85.180000 554.438000
92.909000 -85.256000 554.929000
93.479000 -85.195000 554.536000
94.164000 -85.238000 554.815000
94.776000 -85.216000 554.673000
97.314000 -85.207000 554.616000
98.033000 -85.279000 555.080000
98.657000 -85.268000 555.008000
99.337000 -85.304000 555.243000
99.963000 -85.295000 555.183000
100.639000 -85.327000 555.392000
101.231000 -85.288000 555.141000
101.873000 -85.292000 555.167000
102.495000 -85.279000 555.081000
103.193000 -85.329000 555.408000
103.737000 -85.252000 554.908000
104.338000 -85.223000 554.717000
105.060000 -85.292000 555.166000
105.701000 -85.295000 555.184000
106.337000 -85.294000 555.177000
106.959000 -85.281000 555.096000
107.610000 -85.292000 555.167000
108.254000 -85.297000 555.200000
108.903000 -85.306000 555.258000
109.490000 -85.267000 555.000000
110.161000 -85.293000 555.169000
110.833000 -85.320000 555.346000
111.526000 -85.362000 555.618000
112.122000 -85.330000 555.411000
112.750000 -85.323000 555.365000
113.404000 -85.334000 555.442000
114.141000 -85.409000 555.928000
114.732000 -85.373000 555.695000
115.393000 -85.390000 555.805000
115.997000 -85.366000 555.645000
116.723000 -85.430000 556.063000
117.375000 -85.440000 556.126000
118.052000 -85.468000 556.308000
118.643000 -85.433000 556.085000
119.308000 -85.452000 556.204000
119.920000 -85.433000 556.081000
120.603000 -85.465000 556.289000
121.279000 -85.491000 556.461000
121.918000 -85.491000 556.459000
122.533000 -85.474000 556.352000
123.203000 -85.496000 556.493000
123.841000 -85.495000 556.487000
124.466000 -85.486000 556.425000
125.134000 -85.505000 556.552000
125.754000 -85.492000 556.470000
126.397000 -85.495000 556.488000
127.071000 -85.518000 556.638000
127.698000 -85.510000 556.586000
128.410000 -85.559000 556.901000
129.014000 -85.535000 556.750000
129.627000 -85.518000 556.638000
130.249000 -85.507000 556.565000
130.998000 -85.579000 557.031000
131.589000 -85.547000 556.824000
132.222000 -85.543000 556.799000
132.861000 -85.543000 556.799000
133.516000 -85.553000 556.862000
134.285000 -85.635000 557.399000
134.893000 -85.615000 557.269000
135.456000 -85.567000 556.953000
136.098000 -85.568000 556.962000
136.767000 -85.586000 557.080000
137.545000 -85.672000 557.641000
138.393000 -85.801000 558.479000
138.906000 -85.722000 557.965000
139.377000 -85.618000 557.288000
140.108000 -85.673000 557.648000
140.774000 -85.689000 557.752000
141.404000 -85.683000 557.711000
142.038000 -85.679000 557.685000
142.732000 -85.711000 557.896000
143.446000 -85.755000 558.181000
144.153000 -85.794000 558.435000
144.860000 -85.834000 558.690000
145.596000 -85.889000 559.052000
146.261000 -85.902000 559.139000
147.038000 -85.982000 559.655000
147.692000 -85.988000 559.697000
148.492000 -86.079000 560.291000
149.131000 -86.077000 560.272000
149.878000 -86.136000 560.663000
150.540000 -86.147000 560.731000
151.340000 -86.236000 561.308000
152.057000 -86.277000 561.575000
152.806000 -86.336000 561.960000
153.451000 -86.335000 561.958000
154.213000 -86.401000 562.383000
154.932000 -86.442000 562.649000
155.757000 -86.541000 563.296000
156.478000 -86.582000 563.564000
157.064000 -86.548000 563.344000
157.487000 -86.425000 562.544000
158.391000 -86.567000 563.462000
159.618000 -86.882000 565.518000
159.975000 -86.724000 564.487000
160.488000 -86.651000 564.011000
160.950000 -86.551000 563.361000
161.434000 -86.464000 562.795000
161.886000 -86.360000 562.119000
162.435000 -86.309000 561.785000
162.872000 -86.199000 561.070000
163.414000 -86.145000 560.717000
163.910000 -86.067000 560.211000
164.447000 -86.012000 559.853000
164.952000 -85.940000 559.384000
165.519000 -85.901000 559.130000
166.043000 -85.840000 558.731000
166.590000 -85.791000 558.416000
167.098000 -85.723000 557.971000
167.685000 -85.695000 557.791000
168.253000 -85.659000 557.552000
168.781000 -85.601000 557.180000
169.409000 -85.596000 557.142000
169.904000 -85.523000 556.669000
170.561000 -85.532000 556.725000
171.086000 -85.475000 556.354000
171.764000 -85.494000 556.480000
172.271000 -85.429000 556.056000
172.949000 -85.448000 556.183000
173.488000 -85.399000 555.864000
174.152000 -85.412000 555.945000
174.734000 -85.384000 555.767000
175.428000 -85.411000 555.943000
176.012000 -85.385000 555.771000
176.690000 -85.404000 555.898000
177.313000 -85.397000 555.847000
177.995000 -85.418000 555.985000
178.652000 -85.427000 556.043000
179.325000 -85.443000 556.150000
180.069000 -85.493000 556.476000
180.716000 -85.497000 556.501000
181.468000 -85.550000 556.846000
182.112000 -85.552000 556.860000
182.917000 -85.630000 557.366000
183.584000 -85.643000 557.448000
184.452000 -85.748000 558.137000
185.187000 -85.792000 558.421000
186.066000 -85.902000 559.135000
186.777000 -85.934000 559.341000
187.712000 -86.068000 560.216000
188.574000 -86.168000 560.866000
15.109000 -84.282000 552.725000
15.733000 -84.227000 552.362000
16.354000 -84.158000 551.909000
16.976000 -84.097000 551.511000
17.600000 -84.054000 551.229000
18.221000 -84.000000 550.876000
18.839000 -83.936000 550.453000
19.466000 -83.912000 550.293000
20.088000 -83.872000 550.033000
20.712000 -83.841000 549.833000
21.331000 -83.793000 549.515000
21.959000 -83.781000 549.437000
22.580000 -83.745000 549.199000
23.205000 -83.725000 549.067000
23.832000 -83.712000 548.982000
24.458000 -83.698000 548.893000
25.089000 -83.697000 548.889000
25.720000 -83.702000 548.920000
26.345000 -83.686000 548.813000
26.983000 -83.708000 548.956000
27.609000 -83.694000 548.867000
28.246000 -83.716000 549.014000
28.877000 -83.717000 549.015000
29.516000 -83.743000 549.187000
30.144000 -83.733000 549.126000
30.793000 -83.784000 549.455000
31.423000 -83.781000 549.439000
32.079000 -83.848000 549.878000
32.710000 -83.847000 549.867000
33.366000 -83.909000 550.273000
34.010000 -83.939000 550.472000
34.674000 -84.016000 550.977000
35.325000 -84.059000 551.258000
35.992000 -84.139000 551.786000
36.641000 -84.175000 552.023000
37.324000 -84.286000 552.748000
37.990000 -84.354000 553.197000
38.684000 -84.483000 554.043000
39.349000 -84.545000 554.446000
40.064000 -84.710000 555.532000
40.764000 -84.840000 556.380000
41.486000 -85.010000 557.495000
47.967000 -85.151000 558.419000
48.572000 -85.088000 558.010000
49.209000 -85.080000 557.959000
49.822000 -85.034000 557.654000
50.463000 -85.034000 557.657000
51.062000 -84.967000 557.216000
51.697000 -84.959000 557.162000
52.291000 -84.885000 556.675000
52.942000 -84.903000 556.795000
53.533000 -84.826000 556.290000
54.173000 -84.829000 556.308000
54.855000 -84.895000 556.745000
55.563000 -85.000000 557.429000
56.231000 -85.043000 557.714000
56.932000 -85.133000 558.301000
57.553000 -85.104000 558.114000
58.119000 -84.994000 557.393000
58.664000 -84.857000 556.493000
59.213000 -84.728000 555.647000
59.753000 -84.590000 554.740000
60.363000 -84.551000 554.490000
60.966000 -84.504000 554.178000
61.610000 -84.515000 554.249000
62.302000 -84.590000 554.745000
62.945000 -84.599000 554.800000
63.494000 -84.482000 554.034000
64.118000 -84.466000 553.928000
64.740000 -84.447000 553.803000
65.435000 -84.523000 554.303000
66.068000 -84.518000 554.273000
66.709000 -84.524000 554.310000
67.306000 -84.475000 553.986000
67.927000 -84.457000 553.868000
68.564000 -84.458000 553.875000
69.245000 -84.513000 554.236000
69.861000 -84.488000 554.076000
70.496000 -84.487000 554.065000
71.171000 -84.532000 554.361000
71.835000 -84.564000 554.574000
72.445000 -84.534000 554.373000
73.050000 -84.497000 554.131000
73.691000 -84.503000 554.170000
74.392000 -84.576000 554.648000
75.014000 -84.559000 554.542000
75.578000 -84.478000 554.005000
76.175000 -84.435000 553.724000
76.846000 -84.473000 553.976000
77.557000 -84.554000 554.509000
78.209000 -84.571000 554.621000
78.877000 -84.605000 554.841000
79.511000 -84.602000 554.818000
80.096000 -84.546000 554.453000
80.656000 -84.466000 553.929000
81.297000 -84.471000 553.962000
81.973000 -84.513000 554.235000
82.658000 -84.562000 554.562000
83.291000 -84.558000 554.530000
83.993000 -84.624000 554.965000
84.567000 -84.560000 554.547000
85.158000 -84.515000 554.251000
85.794000 -84.515000 554.250000
86.545000 -84.626000 554.981000
87.185000 -84.630000 555.003000
87.840000 -84.647000 555.115000
88.397000 -84.570000 554.608000
89.106000 -84.638000 555.058000
89.680000 -84.578000 554.665000
90.380000 -84.638000 555.055000
90.954000 -84.579000 554.670000
91.633000 -84.618000 554.925000
92.230000 -84.581000 554.682000
92.952000 -84.658000 555.189000
93.533000 -84.607000 554.852000
94.205000 -84.638000 555.056000
94.780000 -84.583000 554.696000
95.472000 -84.631000 555.013000
96.113000 -84.635000 555.038000
96.777000 -84.658000 555.191000
97.379000 -84.627000 554.985000
98.082000 -84.684000 555.361000
98.705000 -84.671000 555.276000
99.350000 -84.678000 555.318000
99.973000 -84.666000 555.238000
100.657000 -84.704000 555.491000
101.247000 -84.664000 555.228000
101.891000 -84.670000 555.267000
102.538000 -84.678000 555.318000
103.202000 -84.699000 555.460000
103.778000 -84.648000 555.124000
104.412000 -84.646000 555.107000
105.082000 -84.672000 555.281000
105.747000 -84.694000 555.425000
106.401000 -84.707000 555.508000
107.024000 -84.695000 555.434000
107.670000 -84.701000 555.472000
108.290000 -84.688000 555.384000
108.976000 -84.725000 555.627000
109.592000 -84.708000 555.518000
110.251000 -84.724000 555.623000
110.875000 -84.714000 555.556000
111.557000 -84.747000 555.773000
112.142000 -84.707000 555.508000
112.773000 -84.702000 555.476000
113.435000 -84.720000 555.594000
114.204000 -84.817000 556.230000
114.844000 -84.818000 556.240000
115.530000 -84.853000 556.465000
116.145000 -84.836000 556.353000
116.807000 -84.852000 556.460000
117.453000 -84.857000 556.493000
118.109000 -84.870000 556.576000
118.696000 -84.833000 556.333000
119.328000 -84.827000 556.297000
119.949000 -84.815000 556.216000
120.681000 -84.881000 556.648000
121.308000 -84.872000 556.592000
121.958000 -84.880000 556.641000
122.602000 -84.883000 556.664000
123.269000 -84.902000 556.789000
123.857000 -84.867000 556.559000
124.516000 -84.881000 556.649000
125.184000 -84.900000 556.777000
125.782000 -84.872000 556.594000
126.420000 -84.871000 556.586000
127.078000 -84.884000 556.669000
127.696000 -84.870000 556.576000
128.398000 -84.911000 556.849000
129.002000 -84.888000 556.700000
129.641000 -84.888000 556.698000
130.267000 -84.880000 556.642000
130.973000 -84.923000 556.926000
131.571000 -84.896000 556.748000
132.249000 -84.921000 556.914000
132.856000 -84.900000 556.774000
133.484000 -84.893000 556.727000
134.262000 -84.981000 557.304000
134.910000 -84.986000 557.336000
135.488000 -84.947000 557.082000
136.080000 -84.917000 556.886000
136.832000 -84.987000 557.348000
137.607000 -85.071000 557.895000
138.345000 -85.130000 558.285000
138.825000 -85.032000 557.640000
139.287000 -84.923000 556.928000
140.118000 -85.039000 557.688000
140.821000 -85.077000 557.937000
141.401000 -85.041000 557.699000
142.010000 -85.022000 557.575000
142.738000 -85.074000 557.916000
143.450000 -85.117000 558.196000
144.158000 -85.156000 558.454000
144.862000 -85.193000 558.696000
145.585000 -85.240000 559.008000
146.272000 -85.267000 559.182000
147.022000 -85.330000 559.593000
147.687000 -85.343000 559.679000
148.480000 -85.429000 560.245000
149.117000 -85.426000 560.222000
149.881000 -85.494000 560.672000
150.532000 -85.498000 560.698000
151.307000 -85.573000 561.186000
152.015000 -85.608000 561.420000
152.784000 -85.678000 561.877000
153.407000 -85.666000 561.798000
154.187000 -85.741000 562.288000
154.896000 -85.776000 562.518000
155.732000 -85.881000 563.207000
156.448000 -85.919000 563.457000
157.038000 -85.887000 563.252000
157.496000 -85.785000 562.578000
158.408000 -85.929000 563.523000
159.599000 -86.223000 565.451000
159.928000 -86.051000 564.321000
160.461000 -85.989000 563.918000
160.912000 -85.884000 563.227000
161.404000 -85.802000 562.691000
161.857000 -85.700000 562.020000
162.401000 -85.646000 561.668000
162.829000 -85.532000 560.921000
163.392000 -85.489000 560.641000
163.874000 -85.405000 560.090000
164.415000 -85.352000 559.742000
164.900000 -85.271000 559.206000
165.478000 -85.238000 558.989000
165.971000 -85.161000 558.489000
166.543000 -85.126000 558.258000
167.080000 -85.073000 557.910000
167.649000 -85.037000 557.673000
168.240000 -85.012000 557.508000
168.766000 -84.954000 557.130000
169.360000 -84.931000 556.981000
169.876000 -84.870000 556.576000
170.533000 -84.878000 556.633000
171.048000 -84.817000 556.229000
171.718000 -84.832000 556.331000
172.241000 -84.775000 555.957000
172.914000 -84.792000 556.070000
173.462000 -84.748000 555.778000
174.143000 -84.769000 555.917000
174.709000 -84.734000 555.687000
175.385000 -84.752000 555.807000
175.984000 -84.733000 555.682000
176.688000 -84.765000 555.889000
177.301000 -84.753000 555.809000
177.952000 -84.759000 555.850000
178.613000 -84.770000 555.922000
179.302000 -84.794000 556.078000
180.020000 -84.831000 556.323000
180.663000 -84.833000 556.336000
181.434000 -84.895000 556.743000
182.093000 -84.904000 556.804000
182.896000 -84.980000 557.301000
183.541000 -84.982000 557.315000
184.419000 -85.092000 558.036000
185.097000 -85.109000 558.148000
185.995000 -85.227000 558.922000
186.706000 -85.259000 559.129000
187.632000 -85.388000 559.976000
188.504000 -85.492000 560.659000
16.992000 -83.542000 552.029000
17.614000 -83.487000 551.661000
18.234000 -83.426000 551.263000
18.854000 -83.368000 550.879000
19.480000 -83.341000 550.696000
20.100000 -83.289000 550.355000
20.726000 -83.266000 550.205000
21.347000 -83.223000 549.920000
21.973000 -83.201000 549.775000
22.596000 -83.172000 549.582000
23.221000 -83.150000 549.438000
23.852000 -83.151000 549.446000
24.474000 -83.121000 549.243000
25.108000 -83.131000 549.313000
25.736000 -83.121000 549.247000
26.363000 -83.112000 549.186000
26.999000 -83.127000 549.284000
27.629000 -83.124000 549.265000
28.265000 -83.142000 549.384000
28.894000 -83.136000 549.341000
29.537000 -83.170000 549.567000
30.169000 -83.172000 549.581000
30.816000 -83.215000 549.866000
31.448000 -83.217000 549.881000
32.106000 -83.287000 550.345000
32.743000 -83.299000 550.422000
33.396000 -83.351000 550.764000
34.042000 -83.385000 550.991000
34.704000 -83.454000 551.447000
35.354000 -83.494000 551.710000
36.024000 -83.580000 552.280000
36.673000 -83.613000 552.497000
37.360000 -83.732000 553.284000
38.025000 -83.797000 553.711000
38.718000 -83.920000 554.522000
39.382000 -83.979000 554.914000
40.120000 -84.189000 556.304000
40.809000 -84.295000 557.001000
48.020000 -84.603000 559.039000
48.620000 -84.530000 558.553000
49.250000 -84.510000 558.426000
49.871000 -84.477000 558.205000
50.496000 -84.449000 558.023000
51.091000 -84.375000 557.532000
51.732000 -84.376000 557.537000
52.342000 -84.327000 557.212000
52.983000 -84.328000 557.223000
53.569000 -84.245000 556.669000
54.217000 -84.259000 556.762000
54.877000 -84.289000 556.965000
55.585000 -84.394000 557.659000
56.199000 -84.354000 557.395000
