59.258000 -28.989000 346.805000
59.658000 -28.990000 346.815000
60.097000 -29.010000 347.052000
60.510000 -29.017000 347.135000
60.930000 -29.027000 347.257000
61.349000 -29.036000 347.369000
61.782000 -29.053000 347.564000
62.203000 -29.063000 347.686000
62.642000 -29.081000 347.906000
63.061000 -29.090000 348.012000
63.516000 -29.116000 348.317000
63.946000 -29.129000 348.480000
64.402000 -29.154000 348.782000
64.833000 -29.168000 348.946000
65.287000 -29.192000 349.230000
65.730000 -29.210000 349.452000
66.220000 -29.250000 349.924000
66.654000 -29.264000 350.090000
67.147000 -29.303000 350.566000
67.610000 -29.330000 350.884000
68.105000 -29.369000 351.355000
68.590000 -29.405000 351.775000
69.116000 -29.457000 352.398000
69.617000 -29.497000 352.886000
70.138000 -29.546000 353.468000
70.666000 -29.597000 354.083000
71.224000 -29.660000 354.836000
71.787000 -29.725000 355.605000
72.461000 -29.834000 356.916000
73.029000 -29.899000 357.687000
73.669000 -29.992000 358.805000
74.043000 -29.977000 358.624000
74.413000 -29.960000 358.422000
74.804000 -29.952000 358.320000
75.223000 -29.955000 358.360000
75.643000 -29.958000 358.400000
76.035000 -29.950000 358.304000
76.432000 -29.945000 358.241000
76.824000 -29.937000 358.148000
77.226000 -29.934000 358.106000
77.624000 -29.929000 358.045000
78.027000 -29.926000 358.009000
78.427000 -29.921000 357.959000
78.826000 -29.917000 357.902000
79.220000 -29.911000 357.828000
79.627000 -29.909000 357.809000
80.011000 -29.899000 357.689000
80.420000 -29.898000 357.681000
80.811000 -29.891000 357.595000
81.220000 -29.890000 357.588000
81.615000 -29.884000 357.516000
82.015000 -29.881000 357.471000
82.410000 -29.875000 357.406000
82.801000 -29.868000 357.319000
83.204000 -29.865000 357.288000
83.595000 -29.859000 357.209000
84.000000 -29.857000 357.186000
84.379000 -29.846000 357.055000
84.785000 -29.844000 357.038000
85.186000 -29.841000 357.000000
85.583000 -29.837000 356.945000
85.971000 -29.829000 356.854000
86.376000 -29.827000 356.833000
86.766000 -29.821000 356.752000
87.171000 -29.819000 356.736000
87.554000 -29.810000 356.627000
87.958000 -29.808000 356.604000
88.344000 -29.800000 356.510000
88.753000 -29.800000 356.507000
89.127000 -29.788000 356.366000
89.548000 -29.792000 356.413000
89.923000 -29.781000 356.277000
90.330000 -29.780000 356.268000
90.711000 -29.771000 356.160000
91.119000 -29.771000 356.154000
91.503000 -29.762000 356.056000
91.886000 -29.754000 355.957000
92.285000 -29.751000 355.922000
92.848000 -29.801000 356.512000
93.397000 -29.845000 357.048000
93.724000 -29.819000 356.729000
94.090000 -29.805000 356.566000
94.494000 -29.803000 356.545000
41.542000 -29.011000 351.902000
41.909000 -28.986000 351.596000
42.274000 -28.959000 351.275000
42.637000 -28.932000 350.940000
43.002000 -28.906000 350.629000
43.380000 -28.890000 350.435000
43.742000 -28.863000 350.106000
44.105000 -28.838000 349.803000
44.477000 -28.819000 349.568000
44.851000 -28.801000 349.350000
45.217000 -28.778000 349.079000
45.591000 -28.762000 348.876000
45.963000 -28.744000 348.660000
46.340000 -28.730000 348.487000
46.707000 -28.709000 348.237000
47.096000 -28.702000 348.158000
47.462000 -28.682000 347.910000
47.844000 -28.671000 347.780000
48.223000 -28.659000 347.634000
48.599000 -28.646000 347.468000
48.977000 -28.633000 347.322000
49.367000 -28.628000 347.261000
49.741000 -28.614000 347.083000
50.133000 -28.611000 347.043000
50.510000 -28.598000 346.893000
50.899000 -28.593000 346.831000
51.285000 -28.586000 346.747000
51.675000 -28.582000 346.694000
52.063000 -28.576000 346.627000
52.458000 -28.575000 346.607000
52.846000 -28.569000 346.539000
53.243000 -28.569000 346.534000
53.631000 -28.563000 346.467000
54.034000 -28.566000 346.502000
54.415000 -28.557000 346.395000
54.809000 -28.555000 346.373000
55.190000 -28.546000 346.265000
55.582000 -28.543000 346.229000
55.981000 -28.544000 346.241000
56.372000 -28.541000 346.201000
56.777000 -28.545000 346.243000
57.182000 -28.549000 346.291000
57.597000 -28.557000 346.393000
58.003000 -28.561000 346.446000
58.418000 -28.570000 346.547000
58.831000 -28.577000 346.632000
59.252000 -28.588000 346.766000
59.653000 -28.589000 346.783000
60.100000 -28.612000 347.066000
60.522000 -28.623000 347.200000
60.941000 -28.633000 347.316000
61.356000 -28.641000 347.409000
61.788000 -28.656000 347.595000
62.200000 -28.662000 347.667000
62.637000 -28.679000 347.876000
63.067000 -28.693000 348.048000
63.508000 -28.712000 348.274000
63.942000 -28.727000 348.457000
64.400000 -28.753000 348.773000
64.824000 -28.764000 348.899000
65.286000 -28.790000 349.225000
65.725000 -28.807000 349.428000
66.219000 -28.848000 349.921000
66.660000 -28.865000 350.126000
67.141000 -28.899000 350.537000
67.610000 -28.927000 350.881000
68.112000 -28.969000 351.394000
68.591000 -29.001000 351.780000
69.112000 -29.050000 352.376000
69.614000 -29.091000 352.871000
70.150000 -29.145000 353.530000
70.673000 -29.193000 354.114000
71.234000 -29.257000 354.885000
71.802000 -29.323000 355.682000
72.464000 -29.426000 356.931000
73.036000 -29.491000 357.724000
73.558000 -29.536000 358.266000
74.001000 -29.549000 358.421000
74.364000 -29.529000 358.187000
74.758000 -29.522000 358.100000
75.180000 -29.526000 358.153000
75.594000 -29.528000 358.167000
75.986000 -29.520000 358.074000
76.381000 -29.514000 358.000000
76.780000 -29.509000 357.943000
77.178000 -29.504000 357.885000
77.576000 -29.499000 357.823000
77.981000 -29.497000 357.796000
78.370000 -29.489000 357.698000
78.773000 -29.486000 357.662000
79.154000 -29.475000 357.527000
79.577000 -29.480000 357.584000
79.958000 -29.469000 357.452000
80.367000 -29.468000 357.446000
80.750000 -29.458000 357.323000
81.162000 -29.459000 357.329000
81.559000 -29.454000 357.274000
81.958000 -29.450000 357.225000
82.348000 -29.443000 357.138000
82.742000 -29.437000 357.067000
83.141000 -29.433000 357.020000
83.538000 -29.428000 356.962000
83.931000 -29.423000 356.892000
84.329000 -29.418000 356.842000
84.726000 -29.414000 356.789000
85.123000 -29.409000 356.734000
85.523000 -29.406000 356.696000
85.917000 -29.401000 356.629000
86.314000 -29.397000 356.579000
86.707000 -29.391000 356.511000
87.120000 -29.392000 356.528000
87.492000 -29.380000 356.374000
87.908000 -29.382000 356.402000
88.275000 -29.368000 356.229000
88.699000 -29.373000 356.292000
89.066000 -29.359000 356.122000
89.490000 -29.364000 356.182000
89.862000 -29.352000 356.035000
90.261000 -29.349000 355.999000
90.653000 -29.343000 355.932000
91.060000 -29.343000 355.926000
91.443000 -29.334000 355.823000
91.814000 -29.323000 355.681000
92.221000 -29.322000 355.674000
92.796000 -29.375000 356.315000
93.301000 -29.405000 356.680000
93.633000 -29.381000 356.383000
94.006000 -29.369000 356.248000
94.444000 -29.378000 356.358000
94.821000 -29.368000 356.236000
95.104000 -29.330000 355.766000
95.378000 -29.288000 355.264000
95.865000 -29.312000 355.556000
96.655000 -29.429000 356.968000
97.115000 -29.444000 357.150000
97.560000 -29.454000 357.280000
97.902000 -29.434000 357.028000
98.325000 -29.438000 357.077000
98.764000 -29.446000 357.180000
99.322000 -29.490000 357.714000
99.744000 -29.493000 357.752000
100.104000 -29.479000 357.573000
100.490000 -29.471000 357.486000
101.071000 -29.521000 358.091000
101.506000 -29.528000 358.175000
41.544000 -28.609000 351.921000
41.915000 -28.586000 351.641000
42.280000 -28.560000 351.319000
42.642000 -28.532000 350.984000
43.006000 -28.506000 350.663000
43.379000 -28.487000 350.424000
43.742000 -28.461000 350.106000
44.108000 -28.438000 349.824000
44.482000 -28.420000 349.602000
44.853000 -28.401000 349.369000
45.223000 -28.381000 349.126000
45.599000 -28.366000 348.934000
45.970000 -28.348000 348.711000
46.345000 -28.332000 348.521000
46.708000 -28.310000 348.247000
47.099000 -28.304000 348.175000
47.468000 -28.286000 347.952000
47.849000 -28.275000 347.815000
48.221000 -28.259000 347.621000
48.602000 -28.249000 347.493000
48.983000 -28.238000 347.360000
49.373000 -28.233000 347.300000
49.745000 -28.218000 347.117000
50.140000 -28.216000 347.088000
50.516000 -28.203000 346.935000
50.906000 -28.198000 346.874000
51.285000 -28.188000 346.749000
51.680000 -28.186000 346.725000
52.069000 -28.181000 346.664000
52.462000 -28.178000 346.629000
52.852000 -28.174000 346.581000
53.252000 -28.176000 346.594000
53.641000 -28.170000 346.531000
54.039000 -28.170000 346.531000
54.422000 -28.163000 346.440000
54.809000 -28.158000 346.373000
55.191000 -28.149000 346.271000
55.578000 -28.144000 346.205000
55.977000 -28.145000 346.216000
56.371000 -28.143000 346.192000
56.778000 -28.148000 346.249000
57.185000 -28.152000 346.309000
57.595000 -28.158000 346.379000
58.007000 -28.165000 346.466000
58.422000 -28.174000 346.569000
58.834000 -28.180000 346.653000
59.260000 -28.193000 346.815000
59.668000 -28.198000 346.869000
60.099000 -28.214000 347.063000
60.518000 -28.223000 347.180000
60.946000 -28.237000 347.347000
61.358000 -28.243000 347.421000
61.789000 -28.257000 347.602000
62.206000 -28.266000 347.701000
62.640000 -28.281000 347.895000
63.073000 -28.296000 348.081000
63.509000 -28.312000 348.278000
63.938000 -28.325000 348.434000
64.398000 -28.352000 348.760000
64.833000 -28.367000 348.949000
65.297000 -28.394000 349.282000
65.732000 -28.409000 349.468000
66.226000 -28.449000 349.957000
66.674000 -28.469000 350.199000
67.149000 -28.500000 350.580000
67.621000 -28.529000 350.937000
68.120000 -28.569000 351.432000
68.583000 -28.594000 351.739000
69.110000 -28.645000 352.367000
69.615000 -28.686000 352.878000
70.154000 -28.741000 353.548000
70.683000 -28.791000 354.166000
71.245000 -28.854000 354.940000
71.802000 -28.914000 355.682000
72.451000 -29.011000 356.867000
73.035000 -29.080000 357.720000
73.503000 -29.103000 357.998000
73.930000 -29.109000 358.075000
74.316000 -29.099000 357.951000
74.730000 -29.100000 357.970000
75.142000 -29.100000 357.972000
75.556000 -29.102000 357.986000
75.946000 -29.093000 357.886000
76.345000 -29.089000 357.831000
76.732000 -29.080000 357.718000
77.137000 -29.078000 357.694000
77.530000 -29.071000 357.611000
77.940000 -29.071000 357.607000
78.322000 -29.060000 357.478000
78.728000 -29.059000 357.457000
79.108000 -29.048000 357.322000
79.531000 -29.052000 357.379000
79.916000 -29.043000 357.265000
80.317000 -29.039000 357.222000
80.703000 -29.031000 357.115000
81.111000 -29.030000 357.105000
81.507000 -29.025000 357.043000
81.899000 -29.019000 356.968000
82.291000 -29.013000 356.890000
82.690000 -29.009000 356.843000
83.082000 -29.002000 356.765000
83.482000 -28.999000 356.725000
83.874000 -28.993000 356.652000
84.283000 -28.993000 356.646000
84.668000 -28.984000 356.543000
85.068000 -28.981000 356.507000
85.462000 -28.976000 356.442000
85.857000 -28.971000 356.382000
86.257000 -28.968000 356.345000
86.649000 -28.962000 356.272000
87.049000 -28.959000 356.235000
87.437000 -28.952000 356.150000
87.840000 -28.950000 356.126000
88.223000 -28.942000 356.022000
88.627000 -28.940000 356.001000
89.010000 -28.932000 355.900000
89.409000 -28.929000 355.859000
89.802000 -28.924000 355.800000
90.194000 -28.919000 355.734000
90.595000 -28.916000 355.703000
90.987000 -28.911000 355.641000
91.379000 -28.906000 355.577000
91.745000 -28.892000 355.411000
92.204000 -28.908000 355.608000
92.757000 -28.953000 356.164000
93.244000 -28.978000 356.460000
93.540000 -28.943000 356.031000
93.916000 -28.933000 355.907000
94.355000 -28.942000 356.022000
94.719000 -28.928000 355.853000
95.020000 -28.895000 355.449000
95.347000 -28.871000 355.146000
95.852000 -28.900000 355.507000
96.540000 -28.984000 356.540000
97.014000 -29.003000 356.778000
97.489000 -29.023000 357.017000
97.872000 -29.015000 356.920000
98.262000 -29.009000 356.848000
98.646000 -29.001000 356.753000
99.196000 -29.043000 357.261000
99.640000 -29.053000 357.382000
100.020000 -29.044000 357.271000
100.389000 -29.032000 357.124000
100.893000 -29.059000 357.459000
101.376000 -29.080000 357.715000
41.550000 -28.208000 351.969000
41.922000 -28.187000 351.707000
42.285000 -28.160000 351.361000
42.647000 -28.133000 351.023000
43.009000 -28.106000 350.688000
43.382000 -28.087000 350.451000
43.745000 -28.061000 350.136000
44.114000 -28.040000 349.869000
44.487000 -28.022000 349.649000
44.858000 -28.003000 349.406000
45.226000 -27.983000 349.154000
45.605000 -27.969000 348.983000
45.972000 -27.948000 348.726000
46.348000 -27.934000 348.543000
46.710000 -27.911000 348.262000
47.105000 -27.908000 348.224000
47.471000 -27.888000 347.973000
47.853000 -27.878000 347.846000
48.228000 -27.864000 347.671000
48.610000 -27.854000 347.549000
48.987000 -27.842000 347.393000
49.377000 -27.836000 347.325000
49.749000 -27.821000 347.141000
50.145000 -27.820000 347.125000
50.520000 -27.807000 346.959000
50.911000 -27.803000 346.911000
51.293000 -27.794000 346.799000
51.683000 -27.789000 346.743000
52.074000 -27.786000 346.700000
52.468000 -27.784000 346.671000
52.856000 -27.779000 346.606000
53.261000 -27.782000 346.653000
53.649000 -27.777000 346.586000
54.045000 -27.776000 346.571000
54.425000 -27.767000 346.456000
54.814000 -27.762000 346.401000
55.195000 -27.754000 346.300000
55.583000 -27.749000 346.237000
55.977000 -27.747000 346.215000
56.374000 -27.747000 346.212000
56.781000 -27.752000 346.270000
57.191000 -27.758000 346.345000
57.603000 -27.764000 346.429000
58.012000 -27.770000 346.495000
58.424000 -27.777000 346.582000
58.839000 -27.785000 346.682000
59.272000 -27.801000 346.884000
59.678000 -27.804000 346.928000
60.108000 -27.819000 347.112000
60.524000 -27.827000 347.215000
60.949000 -27.839000 347.364000
61.362000 -27.846000 347.443000
61.789000 -27.858000 347.600000
62.215000 -27.870000 347.748000
62.655000 -27.888000 347.978000
63.082000 -27.901000 348.131000
63.513000 -27.914000 348.302000
63.950000 -27.931000 348.503000
64.406000 -27.955000 348.804000
64.846000 -27.972000 349.015000
65.313000 -28.000000 349.372000
65.746000 -28.014000 349.542000
66.230000 -28.049000 349.976000
66.683000 -28.070000 350.244000
67.166000 -28.104000 350.666000
67.632000 -28.130000 350.995000
68.130000 -28.169000 351.484000
68.597000 -28.196000 351.810000
69.115000 -28.242000 352.395000
69.627000 -28.286000 352.936000
70.168000 -28.341000 353.621000
70.692000 -28.388000 354.213000
71.244000 -28.446000 354.935000
71.813000 -28.510000 355.737000
72.437000 -28.595000 356.796000
73.055000 -28.677000 357.814000
73.517000 -28.697000 358.067000
73.899000 -28.686000 357.926000
74.285000 -28.676000 357.803000
74.697000 -28.676000 357.808000
75.110000 -28.677000 357.820000
75.515000 -28.675000 357.793000
75.908000 -28.668000 357.709000
76.303000 -28.662000 357.634000
76.691000 -28.654000 357.530000
77.096000 -28.652000 357.502000
77.489000 -28.645000 357.421000
77.895000 -28.644000 357.403000
78.273000 -28.632000 357.254000
78.693000 -28.636000 357.300000
79.071000 -28.624000 357.152000
79.492000 -28.628000 357.200000
79.870000 -28.616000 357.060000
80.278000 -28.615000 357.049000
80.662000 -28.606000 356.935000
81.072000 -28.606000 356.936000
81.458000 -28.598000 356.830000
81.860000 -28.595000 356.795000
82.246000 -28.587000 356.691000
82.651000 -28.586000 356.676000
83.027000 -28.574000 356.529000
83.439000 -28.575000 356.542000
83.820000 -28.565000 356.420000
84.236000 -28.567000 356.448000
84.626000 -28.561000 356.368000
85.024000 -28.557000 356.322000
85.415000 -28.551000 356.244000
85.806000 -28.545000 356.170000
86.213000 -28.544000 356.161000
86.593000 -28.535000 356.044000
87.003000 -28.535000 356.048000
87.387000 -28.527000 355.946000
87.793000 -28.526000 355.935000
88.174000 -28.517000 355.824000
88.576000 -28.515000 355.797000
88.959000 -28.507000 355.694000
89.355000 -28.503000 355.645000
89.749000 -28.498000 355.587000
90.151000 -28.497000 355.565000
90.533000 -28.488000 355.460000
90.935000 -28.486000 355.438000
91.320000 -28.479000 355.344000
91.696000 -28.469000 355.224000
92.122000 -28.475000 355.291000
92.684000 -28.522000 355.883000
93.173000 -28.546000 356.189000
93.486000 -28.517000 355.826000
93.838000 -28.500000 355.610000
94.275000 -28.509000 355.718000
94.624000 -28.491000 355.497000
94.930000 -28.460000 355.112000
95.337000 -28.460000 355.110000
95.875000 -28.499000 355.594000
96.463000 -28.552000 356.257000
96.906000 -28.562000 356.382000
97.418000 -28.592000 356.760000
97.768000 -28.575000 356.540000
98.177000 -28.575000 356.539000
98.543000 -28.562000 356.381000
99.086000 -28.601000 356.865000
99.554000 -28.617000 357.074000
99.970000 -28.619000 357.093000
100.341000 -28.608000 356.956000
100.796000 -28.621000 357.116000
101.256000 -28.635000 357.292000
41.557000 -27.809000 352.035000
41.925000 -27.785000 351.732000
42.287000 -27.758000 351.384000
42.650000 -27.731000 351.045000
43.014000 -27.706000 350.730000
43.389000 -27.688000 350.502000
43.750000 -27.662000 350.172000
44.120000 -27.642000 349.918000
44.489000 -27.622000 349.663000
44.862000 -27.604000 349.438000
45.225000 -27.581000 349.142000
45.606000 -27.569000 348.991000
45.972000 -27.548000 348.731000
46.353000 -27.537000 348.581000
46.720000 -27.517000 348.332000
47.109000 -27.510000 348.250000
47.472000 -27.489000 347.981000
47.857000 -27.481000 347.877000
48.237000 -27.470000 347.735000
48.615000 -27.458000 347.581000
48.991000 -27.445000 347.417000
49.379000 -27.439000 347.340000
49.753000 -27.425000 347.168000
50.149000 -27.424000 347.151000
50.527000 -27.412000 347.009000
50.919000 -27.409000 346.963000
51.300000 -27.400000 346.850000
51.686000 -27.393000 346.763000
52.078000 -27.390000 346.725000
52.474000 -27.388000 346.707000
52.863000 -27.384000 346.652000
53.263000 -27.385000 346.663000
53.657000 -27.383000 346.634000
54.049000 -27.380000 346.600000
54.426000 -27.370000 346.467000
54.815000 -27.365000 346.409000
55.198000 -27.358000 346.317000
55.585000 -27.353000 346.252000
55.985000 -27.354000 346.265000
56.381000 -27.353000 346.257000
56.790000 -27.358000 346.323000
57.195000 -27.362000 346.371000
57.607000 -27.369000 346.457000
58.018000 -27.375000 346.536000
58.429000 -27.381000 346.610000
58.838000 -27.386000 346.673000
59.279000 -27.406000 346.926000
59.684000 -27.409000 346.963000
60.115000 -27.424000 347.152000
60.529000 -27.431000 347.240000
60.955000 -27.443000 347.399000
61.370000 -27.450000 347.491000
61.797000 -27.463000 347.644000
62.217000 -27.472000 347.760000
62.656000 -27.489000 347.980000
63.082000 -27.501000 348.128000
63.526000 -27.520000 348.373000
63.955000 -27.533000 348.531000
64.407000 -27.555000 348.810000
64.854000 -27.574000 349.058000
65.320000 -27.602000 349.408000
65.752000 -27.615000 349.573000
66.239000 -27.651000 350.026000
66.692000 -27.672000 350.295000
67.179000 -27.707000 350.736000
67.638000 -27.730000 351.025000
68.139000 -27.770000 351.533000
68.616000 -27.799000 351.908000
69.128000 -27.843000 352.460000
69.643000 -27.887000 353.019000
70.172000 -27.936000 353.639000
70.706000 -27.987000 354.281000
71.241000 -28.037000 354.922000
71.814000 -28.102000 355.742000
72.443000 -28.188000 356.827000
73.065000 -28.270000 357.865000
73.482000 -28.272000 357.896000
73.875000 -28.265000 357.806000
74.257000 -28.255000 357.671000
74.670000 -28.255000 357.678000
75.078000 -28.254000 357.668000
75.482000 -28.252000 357.636000
75.875000 -28.245000 357.551000
76.269000 -28.239000 357.476000
76.658000 -28.231000 357.374000
77.063000 -28.229000 357.351000
77.443000 -28.218000 357.211000
77.859000 -28.220000 357.239000
78.235000 -28.208000 357.080000
78.667000 -28.216000 357.181000
79.032000 -28.200000 356.978000
79.452000 -28.203000 357.020000
79.829000 -28.192000 356.874000
80.240000 -28.192000 356.880000
80.619000 -28.181000 356.742000
81.028000 -28.181000 356.742000
81.415000 -28.173000 356.640000
81.818000 -28.171000 356.611000
82.204000 -28.163000 356.510000
82.607000 -28.161000 356.486000
82.990000 -28.152000 356.371000
83.396000 -28.151000 356.358000
83.777000 -28.141000 356.236000
84.186000 -28.141000 356.237000
84.584000 -28.138000 356.189000
84.974000 -28.131000 356.111000
85.371000 -28.127000 356.059000
85.756000 -28.120000 355.961000
86.154000 -28.116000 355.918000
86.545000 -28.110000 355.845000
86.946000 -28.108000 355.815000
87.337000 -28.102000 355.741000
87.740000 -28.101000 355.721000
88.130000 -28.095000 355.646000
88.521000 -28.089000 355.574000
88.903000 -28.081000 355.470000
89.296000 -28.076000 355.409000
89.695000 -28.073000 355.374000
90.098000 -28.072000 355.355000
90.474000 -28.062000 355.230000
90.877000 -28.060000 355.209000
91.255000 -28.051000 355.094000
91.645000 -28.045000 355.023000
92.044000 -28.043000 354.990000
92.568000 -28.078000 355.436000
93.070000 -28.107000 355.798000
93.420000 -28.089000 355.574000
93.770000 -28.071000 355.351000
94.157000 -28.065000 355.275000
94.534000 -28.056000 355.159000
94.879000 -28.037000 354.921000
95.293000 -28.039000 354.948000
95.859000 -28.086000 355.535000
96.365000 -28.114000 355.896000
96.848000 -28.136000 356.168000
97.331000 -28.157000 356.438000
97.679000 -28.140000 356.215000
98.043000 -28.127000 356.052000
98.460000 -28.129000 356.081000
98.980000 -28.161000 356.482000
99.486000 -28.188000 356.829000
99.911000 -28.192000 356.883000
100.276000 -28.180000 356.725000
100.686000 -28.180000 356.725000
101.123000 -28.188000 356.822000
101.566000 -28.197000 356.938000
41.563000 -27.409000 352.086000
41.932000 -27.386000 351.786000
42.294000 -27.359000 351.437000
42.656000 -27.332000 351.099000
43.025000 -27.311000 350.821000
43.396000 -27.291000 350.565000
43.755000 -27.263000 350.211000
44.126000 -27.244000 349.965000
44.495000 -27.224000 349.705000
44.870000 -27.208000 349.499000
45.235000 -27.186000 349.217000
45.613000 -27.172000 349.046000
45.981000 -27.153000 348.792000
46.358000 -27.139000 348.617000
46.726000 -27.120000 348.378000
47.112000 -27.112000 348.273000
47.477000 -27.092000 348.017000
47.863000 -27.085000 347.917000
48.240000 -27.072000 347.759000
48.621000 -27.062000 347.625000
48.996000 -27.049000 347.456000
49.386000 -27.043000 347.389000
49.760000 -27.030000 347.217000
50.157000 -27.029000 347.208000
50.533000 -27.017000 347.047000
50.921000 -27.012000 346.980000
51.305000 -27.004000 346.880000
51.694000 -26.999000 346.822000
52.084000 -26.995000 346.767000
52.478000 -26.993000 346.735000
52.869000 -26.989000 346.688000
53.269000 -26.990000 346.701000
53.655000 -26.984000 346.621000
54.052000 -26.983000 346.616000
54.430000 -26.973000 346.488000
54.823000 -26.971000 346.459000
55.202000 -26.962000 346.341000
55.601000 -26.962000 346.346000
56.001000 -26.964000 346.363000
56.402000 -26.965000 346.384000
56.801000 -26.966000 346.393000
57.204000 -26.968000 346.425000
57.618000 -26.976000 346.523000
58.028000 -26.981000 346.591000
58.443000 -26.989000 346.692000
58.848000 -26.992000 346.733000
59.282000 -27.009000 346.947000
59.690000 -27.013000 347.002000
60.123000 -27.029000 347.202000
60.535000 -27.035000 347.277000
60.964000 -27.048000 347.449000
61.377000 -27.054000 347.530000
61.808000 -27.068000 347.706000
62.227000 -27.077000 347.818000
62.659000 -27.091000 348.001000
63.091000 -27.105000 348.180000
63.524000 -27.119000 348.358000
63.961000 -27.135000 348.561000
64.422000 -27.161000 348.893000
64.857000 -27.175000 349.075000
65.322000 -27.202000 349.419000
65.756000 -27.215000 349.594000
66.245000 -27.251000 350.055000
66.707000 -27.276000 350.370000
67.179000 -27.304000 350.737000
67.640000 -27.327000 351.037000
68.145000 -27.368000 351.562000
68.618000 -27.396000 351.917000
69.120000 -27.435000 352.418000
69.647000 -27.483000 353.040000
70.197000 -27.540000 353.768000
70.720000 -27.585000 354.351000
71.253000 -27.635000 354.982000
71.838000 -27.703000 355.861000
72.459000 -27.784000 356.907000
73.069000 -27.861000 357.887000
73.444000 -27.847000 357.712000
73.832000 -27.838000 357.600000
74.224000 -27.832000 357.512000
74.644000 -27.835000 357.556000
75.049000 -27.833000 357.530000
75.452000 -27.830000 357.492000
75.841000 -27.822000 357.394000
76.237000 -27.817000 357.327000
76.628000 -27.810000 357.233000
77.035000 -27.809000 357.220000
77.414000 -27.798000 357.077000
77.831000 -27.800000 357.110000
78.206000 -27.788000 356.950000
78.634000 -27.794000 357.029000
79.004000 -27.780000 356.849000
79.414000 -27.780000 356.852000
79.801000 -27.772000 356.748000
80.201000 -27.769000 356.705000
80.581000 -27.759000 356.575000
80.991000 -27.759000 356.577000
81.384000 -27.753000 356.506000
81.784000 -27.750000 356.463000
82.165000 -27.741000 356.344000
82.570000 -27.739000 356.325000
82.957000 -27.732000 356.229000
83.360000 -27.730000 356.204000
83.746000 -27.722000 356.106000
84.146000 -27.719000 356.070000
84.546000 -27.716000 356.030000
84.930000 -27.708000 355.927000
85.335000 -27.707000 355.909000
85.715000 -27.698000 355.794000
86.118000 -27.696000 355.769000
86.503000 -27.688000 355.671000
86.904000 -27.686000 355.642000
87.288000 -27.678000 355.544000
87.700000 -27.679000 355.559000
88.081000 -27.671000 355.448000
88.490000 -27.671000 355.452000
88.862000 -27.660000 355.308000
89.262000 -27.657000 355.277000
89.642000 -27.649000 355.166000
90.056000 -27.651000 355.188000
90.419000 -27.637000 355.012000
90.835000 -27.640000 355.047000
91.214000 -27.631000 354.935000
91.615000 -27.629000 354.908000
92.007000 -27.624000 354.848000
92.481000 -27.644000 355.105000
92.967000 -27.667000 355.403000
93.366000 -27.665000 355.368000
93.743000 -27.656000 355.251000
94.103000 -27.641000 355.068000
94.477000 -27.631000 354.942000
94.827000 -27.615000 354.726000
95.263000 -27.623000 354.836000
95.824000 -27.667000 355.402000
96.325000 -27.694000 355.747000
96.780000 -27.707000 355.919000
97.261000 -27.728000 356.185000
97.661000 -27.725000 356.149000
98.027000 -27.713000 355.995000
98.414000 -27.707000 355.917000
98.917000 -27.734000 356.254000
99.398000 -27.754000 356.512000
99.847000 -27.765000 356.655000
100.214000 -27.753000 356.504000
100.609000 -27.749000 356.454000
101.041000 -27.755000 356.532000
101.466000 -27.760000 356.588000
101.958000 -27.782000 356.876000
102.449000 -27.804000 357.158000
102.834000 -27.797000 357.074000
103.257000 -27.801000 357.118000
41.205000 -27.035000 352.478000
41.569000 -27.009000 352.137000
41.941000 -26.988000 351.861000
42.298000 -26.958000 351.476000
42.659000 -26.931000 351.121000
43.029000 -26.910000 350.851000
43.401000 -26.891000 350.603000
43.762000 -26.865000 350.268000
44.132000 -26.846000 350.017000
44.505000 -26.828000 349.784000
44.876000 -26.810000 349.548000
45.244000 -26.791000 349.292000
45.618000 -26.775000 349.086000
45.988000 -26.757000 348.850000
46.361000 -26.741000 348.642000
46.731000 -26.723000 348.413000
47.115000 -26.714000 348.298000
47.485000 -26.697000 348.073000
47.873000 -26.691000 347.994000
48.243000 -26.675000 347.782000
48.627000 -26.666000 347.666000
49.005000 -26.655000 347.521000
49.398000 -26.651000 347.475000
49.765000 -26.634000 347.251000
50.161000 -26.633000 347.237000
50.540000 -26.622000 347.099000
50.932000 -26.619000 347.051000
51.310000 -26.608000 346.916000
51.702000 -26.605000 346.873000
52.093000 -26.601000 346.826000
52.481000 -26.596000 346.756000
52.875000 -26.594000 346.727000
53.273000 -26.594000 346.730000
53.659000 -26.588000 346.653000
54.053000 -26.586000 346.625000
54.440000 -26.580000 346.552000
54.832000 -26.578000 346.516000
55.216000 -26.571000 346.429000
55.616000 -26.572000 346.445000
56.016000 -26.573000 346.457000
56.419000 -26.576000 346.490000
56.819000 -26.577000 346.503000
57.222000 -26.579000 346.534000
57.633000 -26.585000 346.609000
58.043000 -26.590000 346.680000
58.457000 -26.597000 346.775000
58.866000 -26.603000 346.842000
59.294000 -26.616000 347.017000
59.704000 -26.621000 347.080000
60.126000 -26.632000 347.219000
60.538000 -26.637000 347.296000
60.971000 -26.652000 347.489000
61.388000 -26.660000 347.590000
61.819000 -26.674000 347.767000
62.240000 -26.683000 347.888000
62.671000 -26.697000 348.066000
63.104000 -26.710000 348.248000
63.544000 -26.728000 348.472000
63.978000 -26.742000 348.657000
64.444000 -26.769000 349.008000
64.874000 -26.781000 349.168000
65.338000 -26.807000 349.504000
65.773000 -26.820000 349.682000
66.249000 -26.851000 350.078000
66.719000 -26.878000 350.434000
67.191000 -26.906000 350.800000
67.653000 -26.929000 351.103000
68.163000 -26.972000 351.656000
68.643000 -27.002000 352.047000
69.151000 -27.042000 352.576000
69.659000 -27.083000 353.100000
70.205000 -27.137000 353.808000
70.734000 -27.184000 354.421000
71.269000 -27.233000 355.058000
71.852000 -27.300000 355.930000
72.471000 -27.379000 356.966000
73.051000 -27.443000 357.799000
73.424000 -27.429000 357.613000
73.802000 -27.417000 357.455000
74.199000 -27.412000 357.389000
74.627000 -27.418000 357.475000
75.038000 -27.418000 357.477000
75.431000 -27.412000 357.393000
75.815000 -27.403000 357.272000
76.207000 -27.396000 357.185000
76.599000 -27.389000 357.101000
77.016000 -27.392000 357.130000
77.397000 -27.382000 356.999000
77.803000 -27.380000 356.980000
78.181000 -27.369000 356.833000
78.596000 -27.371000 356.860000
78.978000 -27.361000 356.732000
79.386000 -27.361000 356.726000
79.775000 -27.354000 356.635000
80.167000 -27.347000 356.554000
80.551000 -27.339000 356.443000
80.959000 -27.338000 356.436000
81.354000 -27.334000 356.374000
81.747000 -27.328000 356.302000
82.133000 -27.321000 356.205000
82.533000 -27.318000 356.164000
82.926000 -27.312000 356.095000
83.317000 -27.307000 356.021000
83.712000 -27.302000 355.960000
84.104000 -27.297000 355.891000
84.504000 -27.294000 355.855000
84.888000 -27.286000 355.750000
85.302000 -27.288000 355.772000
85.675000 -27.276000 355.625000
86.084000 -27.276000 355.627000
86.466000 -27.268000 355.521000
86.867000 -27.266000 355.490000
87.243000 -27.256000 355.358000
87.648000 -27.255000 355.349000
88.032000 -27.247000 355.249000
88.448000 -27.250000 355.281000
88.823000 -27.240000 355.149000
89.221000 -27.237000 355.113000
89.595000 -27.227000 354.977000
90.008000 -27.228000 355.000000
90.381000 -27.218000 354.863000
90.782000 -27.216000 354.837000
91.167000 -27.209000 354.751000
91.549000 -27.202000 354.653000
91.956000 -27.201000 354.650000
92.417000 -27.217000 354.857000
92.927000 -27.247000 355.250000
93.339000 -27.249000 355.265000
93.718000 -27.240000 355.157000
94.043000 -27.216000 354.845000
94.365000 -27.192000 354.521000
94.706000 -27.173000 354.276000
95.207000 -27.200000 354.627000
95.789000 -27.249000 355.273000
96.206000 -27.252000 355.309000
96.702000 -27.277000 355.630000
97.204000 -27.303000 355.976000
97.586000 -27.296000 355.876000
98.007000 -27.299000 355.923000
98.399000 -27.294000 355.863000
98.866000 -27.310000 356.071000
99.330000 -27.326000 356.270000
99.758000 -27.331000 356.338000
100.144000 -27.325000 356.254000
100.563000 -27.327000 356.291000
100.986000 -27.331000 356.340000
101.423000 -27.339000 356.437000
101.910000 -27.359000 356.708000
102.376000 -27.374000 356.905000
102.780000 -27.373000 356.884000
103.192000 -27.373000 356.891000
41.212000 -26.635000 352.539000
41.576000 -26.609000 352.194000
41.949000 -26.589000 351.933000
42.303000 -26.557000 351.516000
42.664000 -26.531000 351.163000
43.037000 -26.512000 350.918000
43.408000 -26.493000 350.659000
43.769000 -26.467000 350.324000
44.141000 -26.450000 350.087000
44.510000 -26.430000 349.824000
44.882000 -26.412000 349.596000
45.254000 -26.395000 349.369000
45.630000 -26.380000 349.173000
45.999000 -26.363000 348.935000
46.371000 -26.346000 348.716000
46.744000 -26.331000 348.516000
47.125000 -26.320000 348.372000
47.491000 -26.301000 348.120000
47.885000 -26.298000 348.076000
48.254000 -26.281000 347.860000
48.636000 -26.272000 347.737000
49.017000 -26.262000 347.601000
49.405000 -26.256000 347.523000
49.778000 -26.242000 347.342000
50.172000 -26.240000 347.310000
50.546000 -26.227000 347.140000
50.940000 -26.224000 347.107000
51.319000 -26.215000 346.979000
51.708000 -26.210000 346.914000
52.102000 -26.207000 346.883000
52.489000 -26.202000 346.807000
52.875000 -26.196000 346.732000
53.278000 -26.198000 346.763000
53.665000 -26.193000 346.690000
54.063000 -26.193000 346.686000
54.447000 -26.186000 346.596000
54.846000 -26.187000 346.606000
55.233000 -26.181000 346.537000
55.634000 -26.183000 346.558000
56.026000 -26.180000 346.519000
56.439000 -26.187000 346.609000
56.838000 -26.187000 346.618000
57.243000 -26.190000 346.657000
57.653000 -26.196000 346.731000
58.054000 -26.197000 346.748000
58.473000 -26.207000 346.871000
58.878000 -26.209000 346.910000
59.308000 -26.223000 347.094000
59.718000 -26.229000 347.166000
60.137000 -26.238000 347.283000
60.548000 -26.243000 347.353000
60.974000 -26.254000 347.503000
61.398000 -26.265000 347.645000
61.834000 -26.281000 347.855000
62.255000 -26.290000 347.973000
62.689000 -26.304000 348.163000
63.120000 -26.317000 348.337000
63.566000 -26.336000 348.591000
63.986000 -26.345000 348.698000
64.440000 -26.366000 348.988000
64.878000 -26.382000 349.191000
65.367000 -26.417000 349.660000
65.802000 -26.431000 349.839000
66.268000 -26.456000 350.177000
66.724000 -26.478000 350.461000
67.210000 -26.511000 350.898000
67.672000 -26.534000 351.204000
68.181000 -26.575000 351.747000
68.662000 -26.605000 352.146000
69.189000 -26.652000 352.771000
69.677000 -26.684000 353.191000
70.217000 -26.735000 353.867000
70.753000 -26.784000 354.517000
71.299000 -26.836000 355.207000
71.900000 -26.909000 356.164000
72.489000 -26.976000 357.051000
73.026000 -27.023000 357.673000
73.418000 -27.016000 357.585000
73.778000 -26.997000 357.340000
74.191000 -26.998000 357.352000
74.618000 -27.005000 357.433000
75.025000 -27.003000 357.416000
75.412000 -26.995000 357.306000
75.784000 -26.981000 357.125000
76.188000 -26.979000 357.093000
76.576000 -26.971000 356.990000
76.994000 -26.974000 357.029000
77.374000 -26.964000 356.893000
77.781000 -26.963000 356.880000
78.160000 -26.952000 356.739000
78.572000 -26.953000 356.749000
78.956000 -26.944000 356.633000
79.361000 -26.942000 356.612000
79.746000 -26.934000 356.505000
80.142000 -26.930000 356.442000
80.527000 -26.922000 356.335000
80.935000 -26.921000 356.330000
81.323000 -26.914000 356.240000
81.722000 -26.911000 356.197000
82.109000 -26.904000 356.098000
82.509000 -26.901000 356.059000
82.897000 -26.894000 355.974000
83.289000 -26.889000 355.900000
83.685000 -26.885000 355.845000
84.052000 -26.871000 355.670000
84.474000 -26.876000 355.726000
84.857000 -26.868000 355.620000
85.261000 -26.866000 355.603000
85.644000 -26.858000 355.496000
86.047000 -26.857000 355.476000
86.433000 -26.850000 355.385000
86.832000 -26.847000 355.346000
87.217000 -26.840000 355.253000
87.611000 -26.836000 355.198000
87.997000 -26.829000 355.107000
88.403000 -26.828000 355.102000
88.788000 -26.821000 355.010000
89.191000 -26.820000 354.994000
89.562000 -26.809000 354.847000
89.979000 -26.812000 354.886000
90.342000 -26.799000 354.709000
90.748000 -26.798000 354.704000
91.124000 -26.789000 354.582000
91.510000 -26.783000 354.503000
91.914000 -26.782000 354.490000
92.364000 -26.795000 354.653000
92.859000 -26.820000 354.991000
93.315000 -26.834000 355.173000
93.708000 -26.830000 355.118000
94.016000 -26.801000 354.743000
94.271000 -26.758000 354.170000
94.594000 -26.734000 353.855000
95.124000 -26.769000 354.316000
95.712000 -26.820000 354.988000
96.166000 -26.833000 355.158000
96.595000 -26.839000 355.237000
97.118000 -26.870000 355.659000
97.562000 -26.880000 355.790000
97.927000 -26.868000 355.632000
98.368000 -26.877000 355.748000
98.828000 -26.891000 355.935000
99.300000 -26.909000 356.163000
99.715000 -26.910000 356.184000
100.092000 -26.901000 356.068000
100.509000 -26.904000 356.098000
100.930000 -26.907000 356.141000
101.372000 -26.916000 356.257000
101.865000 -26.938000 356.549000
102.307000 -26.946000 356.665000
102.687000 -26.939000 356.563000
103.086000 -26.936000 356.524000
103.563000 -26.954000 356.760000
41.593000 -26.215000 352.336000
41.961000 -26.192000 352.033000
42.316000 -26.162000 351.625000
42.681000 -26.138000 351.305000
43.047000 -26.115000 351.000000
43.417000 -26.095000 350.730000
43.775000 -26.069000 350.370000
44.149000 -26.052000 350.148000
44.518000 -26.032000 349.885000
44.897000 -26.019000 349.708000
45.262000 -25.998000 349.427000
45.640000 -25.985000 349.248000
46.010000 -25.968000 349.014000
46.384000 -25.953000 348.818000
46.756000 -25.937000 348.601000
47.138000 -25.927000 348.463000
47.503000 -25.908000 348.208000
47.896000 -25.904000 348.158000
48.266000 -25.888000 347.942000
48.649000 -25.879000 347.824000
49.026000 -25.868000 347.670000
49.417000 -25.863000 347.611000
49.793000 -25.851000 347.450000
50.186000 -25.848000 347.407000
50.555000 -25.833000 347.203000
50.949000 -25.830000 347.169000
51.330000 -25.821000 347.048000
51.719000 -25.817000 346.989000
52.111000 -25.814000 346.945000
52.500000 -25.809000 346.883000
52.887000 -25.804000 346.810000
53.283000 -25.803000 346.796000
53.672000 -25.798000 346.731000
54.071000 -25.798000 346.737000
54.456000 -25.792000 346.656000
54.860000 -25.795000 346.691000
55.246000 -25.790000 346.619000
55.651000 -25.792000 346.659000
56.041000 -25.789000 346.610000
56.450000 -25.794000 346.679000
56.854000 -25.797000 346.714000
57.261000 -25.801000 346.769000
57.665000 -25.803000 346.805000
58.071000 -25.807000 346.850000
58.482000 -25.812000 346.927000
58.889000 -25.816000 346.977000
59.319000 -25.830000 347.159000
59.734000 -25.837000 347.256000
60.147000 -25.843000 347.338000
60.562000 -25.850000 347.432000
60.991000 -25.863000 347.603000
61.412000 -25.872000 347.726000
61.844000 -25.885000 347.907000
62.268000 -25.896000 348.044000
62.697000 -25.908000 348.209000
63.133000 -25.923000 348.409000
63.584000 -25.944000 348.691000
64.005000 -25.952000 348.800000
64.458000 -25.973000 349.083000
64.893000 -25.987000 349.268000
65.387000 -26.024000 349.767000
65.812000 -26.033000 349.892000
66.280000 -26.059000 350.243000
66.745000 -26.083000 350.568000
67.230000 -26.116000 351.003000
67.693000 -26.139000 351.314000
68.211000 -26.183000 351.904000
68.688000 -26.211000 352.280000
69.211000 -26.256000 352.882000
69.700000 -26.287000 353.307000
70.246000 -26.340000 354.015000
70.776000 -26.386000 354.634000
71.343000 -26.445000 355.431000
71.918000 -26.506000 356.254000
72.517000 -26.576000 357.192000
73.011000 -26.607000 357.603000
73.408000 -26.602000 357.535000
73.754000 -26.578000 357.223000
74.186000 -26.586000 357.327000
74.609000 -26.591000 357.390000
75.006000 -26.586000 357.326000
75.394000 -26.578000 357.218000
75.766000 -26.565000 357.041000
76.175000 -26.564000 357.033000
76.559000 -26.556000 356.915000
76.973000 -26.557000 356.933000
77.350000 -26.545000 356.780000
77.753000 -26.543000 356.749000
78.148000 -26.538000 356.684000
78.544000 -26.534000 356.621000
78.945000 -26.531000 356.584000
79.330000 -26.523000 356.473000
79.726000 -26.518000 356.416000
80.120000 -26.513000 356.346000
80.507000 -26.506000 356.246000
80.902000 -26.501000 356.188000
81.298000 -26.497000 356.129000
81.700000 -26.495000 356.099000
82.084000 -26.487000 355.990000
82.478000 -26.482000 355.927000
82.871000 -26.477000 355.860000
83.256000 -26.470000 355.759000
83.659000 -26.468000 355.737000
84.030000 -26.456000 355.576000
84.444000 -26.458000 355.602000
84.825000 -26.449000 355.485000
85.227000 -26.447000 355.460000
85.609000 -26.439000 355.353000
86.007000 -26.436000 355.310000
86.399000 -26.431000 355.244000
86.801000 -26.429000 355.220000
87.175000 -26.419000 355.084000
87.579000 -26.418000 355.067000
87.964000 -26.411000 354.974000
88.371000 -26.411000 354.974000
88.750000 -26.403000 354.859000
89.147000 -26.400000 354.818000
89.527000 -26.391000 354.707000
89.941000 -26.393000 354.735000
90.305000 -26.381000 354.564000
90.707000 -26.379000 354.546000
91.085000 -26.371000 354.433000
91.469000 -26.364000 354.341000
91.872000 -26.363000 354.329000
92.340000 -26.381000 354.564000
92.797000 -26.395000 354.754000
93.238000 -26.404000 354.880000
93.667000 -26.410000 354.961000
93.983000 -26.384000 354.615000
94.256000 -26.347000 354.113000
94.539000 -26.313000 353.649000
94.979000 -26.322000 353.776000
95.668000 -26.400000 354.827000
96.102000 -26.407000 354.922000
96.553000 -26.419000 355.084000
97.036000 -26.440000 355.361000
97.457000 -26.443000 355.407000
97.892000 -26.451000 355.504000
98.332000 -26.459000 355.619000
98.778000 -26.469000 355.755000
99.203000 -26.474000 355.813000
99.642000 -26.482000 355.921000
100.035000 -26.478000 355.866000
100.462000 -26.482000 355.932000
100.881000 -26.485000 355.968000
101.328000 -26.495000 356.102000
101.814000 -26.515000 356.372000
102.246000 -26.521000 356.451000
102.608000 -26.509000 356.289000
102.997000 -26.504000 356.216000
103.498000 -26.527000 356.536000
103.929000 -26.533000 356.609000
104.427000 -26.555000 356.910000
104.827000 -26.553000 356.877000
41.605000 -25.818000 352.439000
41.967000 -25.792000 352.084000
42.327000 -25.765000 351.713000
42.695000 -25.743000 351.419000
43.059000 -25.719000 351.094000
43.425000 -25.698000 350.798000
43.787000 -25.673000 350.469000
44.163000 -25.658000 350.256000
44.529000 -25.637000 349.972000
44.907000 -25.624000 349.789000
45.271000 -25.602000 349.497000
45.651000 -25.591000 349.339000
46.020000 -25.572000 349.090000
46.395000 -25.558000 348.895000
46.769000 -25.544000 348.699000
47.149000 -25.533000 348.550000
47.510000 -25.512000 348.264000
47.903000 -25.508000 348.213000
48.275000 -25.494000 348.012000
48.662000 -25.487000 347.918000
49.036000 -25.473000 347.736000
49.430000 -25.471000 347.701000
49.801000 -25.456000 347.503000
50.196000 -25.454000 347.476000
50.564000 -25.439000 347.261000
50.961000 -25.438000 347.250000
51.342000 -25.429000 347.131000
51.731000 -25.424000 347.064000
52.117000 -25.418000 346.984000
52.515000 -25.418000 346.980000
52.901000 -25.412000 346.900000
53.294000 -25.409000 346.862000
53.681000 -25.404000 346.794000
54.077000 -25.403000 346.776000
54.465000 -25.398000 346.714000
54.868000 -25.401000 346.745000
55.259000 -25.397000 346.697000
55.667000 -25.402000 346.763000
56.056000 -25.398000 346.705000
56.468000 -25.404000 346.787000
56.866000 -25.404000 346.787000
57.277000 -25.410000 346.866000
57.684000 -25.413000 346.917000
58.093000 -25.418000 346.983000
58.503000 -25.423000 347.050000
58.908000 -25.426000 347.090000
59.329000 -25.435000 347.217000
59.747000 -25.444000 347.331000
60.161000 -25.450000 347.421000
60.581000 -25.459000 347.539000
61.009000 -25.471000 347.704000
61.429000 -25.480000 347.825000
61.865000 -25.495000 348.030000
62.289000 -25.505000 348.165000
62.719000 -25.517000 348.330000
63.145000 -25.528000 348.477000
63.593000 -25.547000 348.736000
64.028000 -25.561000 348.929000
64.486000 -25.583000 349.237000
64.910000 -25.592000 349.362000
65.396000 -25.625000 349.813000
65.818000 -25.633000 349.920000
66.308000 -25.667000 350.387000
66.765000 -25.689000 350.674000
67.257000 -25.723000 351.140000
67.729000 -25.749000 351.497000
68.217000 -25.781000 351.936000
68.702000 -25.811000 352.351000
69.223000 -25.855000 352.944000
69.721000 -25.889000 353.413000
70.279000 -25.945000 354.179000
70.815000 -25.993000 354.827000
71.375000 -26.049000 355.589000
71.931000 -26.102000 356.321000
72.516000 -26.165000 357.184000
72.994000 -26.190000 357.516000
73.396000 -26.187000 357.477000
73.754000 -26.168000 357.220000
74.182000 -26.175000 357.309000
74.600000 -26.177000 357.343000
74.993000 -26.171000 357.263000
75.383000 -26.164000 357.165000
75.757000 -26.152000 356.997000
76.164000 -26.151000 356.984000
76.550000 -26.142000 356.871000
76.949000 -26.139000 356.822000
77.337000 -26.132000 356.722000
77.735000 -26.128000 356.668000
78.128000 -26.122000 356.591000
78.527000 -26.119000 356.546000
78.921000 -26.113000 356.473000
79.319000 -26.110000 356.425000
79.707000 -26.103000 356.329000
80.107000 -26.100000 356.287000
80.486000 -26.090000 356.155000
80.887000 -26.087000 356.120000
81.276000 -26.081000 356.034000
81.681000 -26.080000 356.015000
82.059000 -26.070000 355.883000
82.453000 -26.065000 355.818000
82.849000 -26.061000 355.764000
83.231000 -26.053000 355.654000
83.643000 -26.054000 355.667000
84.022000 -26.045000 355.542000
84.424000 -26.043000 355.517000
84.806000 -26.035000 355.408000
85.206000 -26.033000 355.373000
85.592000 -26.026000 355.282000
85.981000 -26.020000 355.201000
86.373000 -26.016000 355.138000
86.771000 -26.012000 355.096000
87.147000 -26.003000 354.970000
87.544000 -26.000000 354.927000
87.928000 -25.993000 354.832000
88.346000 -25.996000 354.871000
88.717000 -25.985000 354.726000
89.125000 -25.986000 354.728000
89.497000 -25.975000 354.590000
89.900000 -25.974000 354.571000
90.282000 -25.967000 354.476000
90.672000 -25.962000 354.408000
91.068000 -25.959000 354.364000
91.426000 -25.945000 354.177000
91.853000 -25.951000 354.255000
92.319000 -25.967000 354.481000
92.762000 -25.978000 354.621000
93.197000 -25.985000 354.726000
93.621000 -25.990000 354.787000
93.940000 -25.966000 354.456000
94.217000 -25.930000 353.965000
94.534000 -25.905000 353.631000
95.014000 -25.925000 353.906000
95.605000 -25.975000 354.591000
96.054000 -25.987000 354.748000
96.489000 -25.994000 354.850000
97.015000 -26.026000 355.284000
97.418000 -26.025000 355.263000
97.843000 -26.029000 355.325000
98.254000 -26.030000 355.337000
98.720000 -26.045000 355.547000
99.142000 -26.049000 355.594000
99.578000 -26.056000 355.694000
99.992000 -26.058000 355.715000
100.428000 -26.065000 355.811000
100.854000 -26.069000 355.874000
101.306000 -26.081000 356.025000
101.752000 -26.090000 356.154000
102.142000 -26.085000 356.090000
102.526000 -26.079000 356.001000
102.951000 -26.083000 356.058000
103.443000 -26.104000 356.344000
103.825000 -26.097000 356.252000
104.355000 -26.127000 356.664000
104.726000 -26.118000 356.534000
41.616000 -25.420000 352.535000
41.978000 -25.394000 352.174000
42.336000 -25.366000 351.785000
42.704000 -25.345000 351.489000
43.073000 -25.324000 351.208000
43.437000 -25.301000 350.890000
43.798000 -25.277000 350.557000
44.174000 -25.262000 350.350000
44.543000 -25.243000 350.084000
44.918000 -25.228000 349.872000
45.282000 -25.207000 349.585000
45.664000 -25.197000 349.436000
46.034000 -25.179000 349.195000
46.404000 -25.163000 348.967000
46.783000 -25.151000 348.802000
47.158000 -25.137000 348.615000
47.524000 -25.119000 348.362000
47.919000 -25.117000 348.328000
48.287000 -25.100000 348.095000
48.676000 -25.095000 348.020000
49.045000 -25.079000 347.801000
49.444000 -25.078000 347.798000
49.813000 -25.063000 347.585000
50.204000 -25.059000 347.532000
50.576000 -25.046000 347.347000
50.977000 -25.047000 347.357000
51.353000 -25.036000 347.209000
51.745000 -25.033000 347.164000
52.128000 -25.025000 347.055000
52.523000 -25.023000 347.031000
52.912000 -25.019000 346.975000
53.307000 -25.017000 346.950000
53.694000 -25.012000 346.872000
54.093000 -25.012000 346.877000
54.479000 -25.007000 346.802000
54.880000 -25.008000 346.818000
55.267000 -25.003000 346.746000
55.683000 -25.011000 346.863000
56.070000 -25.006000 346.793000
56.481000 -25.012000 346.869000
56.884000 -25.014000 346.899000
57.289000 -25.016000 346.937000
57.697000 -25.021000 346.995000
58.107000 -25.026000 347.067000
58.519000 -25.031000 347.146000
58.928000 -25.036000 347.206000
59.346000 -25.044000 347.317000
59.761000 -25.051000 347.410000
60.175000 -25.057000 347.503000
60.599000 -25.067000 347.641000
61.024000 -25.078000 347.792000
61.444000 -25.087000 347.910000
61.880000 -25.101000 348.110000
62.307000 -25.112000 348.267000
62.738000 -25.124000 348.435000
63.159000 -25.133000 348.551000
63.614000 -25.154000 348.852000
64.045000 -25.166000 349.018000
64.503000 -25.189000 349.327000
64.930000 -25.199000 349.467000
65.404000 -25.227000 349.855000
65.839000 -25.240000 350.036000
66.320000 -25.270000 350.452000
66.789000 -25.295000 350.802000
67.285000 -25.330000 351.289000
67.744000 -25.351000 351.579000
68.248000 -25.388000 352.097000
68.743000 -25.422000 352.562000
69.258000 -25.462000 353.120000
69.765000 -25.499000 353.634000
70.318000 -25.553000 354.378000
70.844000 -25.596000 354.973000
71.422000 -25.657000 355.820000
