152.047000 20.924000 279.470000
152.270000 20.911000 279.290000
152.460000 20.893000 279.050000
152.703000 20.882000 278.908000
152.927000 20.869000 278.735000
153.169000 20.859000 278.592000
153.397000 20.846000 278.426000
153.604000 20.831000 278.221000
153.844000 20.820000 278.077000
154.068000 20.807000 277.905000
154.354000 20.803000 277.846000
154.556000 20.787000 277.636000
154.819000 20.780000 277.536000
155.028000 20.765000 277.339000
155.285000 20.757000 277.230000
155.550000 20.750000 277.134000
155.811000 20.742000 277.033000
156.045000 20.731000 276.884000
156.282000 20.720000 276.740000
156.555000 20.714000 276.661000
156.805000 20.705000 276.541000
157.064000 20.697000 276.439000
35.806000 21.787000 286.591000
36.128000 21.782000 286.530000
36.460000 21.784000 286.555000
36.763000 21.769000 286.356000
37.123000 21.787000 286.593000
37.414000 21.765000 286.306000
37.732000 21.759000 286.225000
38.064000 21.760000 286.245000
38.357000 21.740000 285.980000
38.672000 21.733000 285.879000
39.030000 21.749000 286.100000
39.335000 21.736000 285.927000
39.646000 21.727000 285.801000
39.968000 21.723000 285.760000
40.286000 21.718000 285.685000
40.567000 21.693000 285.360000
40.862000 21.675000 285.126000
41.145000 21.652000 284.824000
41.458000 21.645000 284.727000
41.778000 21.641000 284.679000
42.101000 21.639000 284.655000
42.387000 21.618000 284.378000
42.753000 21.638000 284.642000
45.297000 21.605000 284.199000
45.576000 21.582000 283.903000
45.937000 21.599000 284.118000
46.254000 21.594000 284.058000
46.564000 21.587000 283.960000
46.873000 21.579000 283.860000
47.192000 21.576000 283.817000
47.508000 21.571000 283.760000
47.823000 21.566000 283.692000
48.140000 21.562000 283.640000
48.452000 21.557000 283.564000
48.770000 21.553000 283.515000
49.088000 21.550000 283.475000
49.407000 21.547000 283.438000
49.724000 21.543000 283.391000
50.046000 21.542000 283.367000
50.366000 21.539000 283.337000
50.683000 21.536000 283.290000
50.990000 21.528000 283.189000
51.308000 21.525000 283.154000
51.616000 21.518000 283.055000
51.928000 21.512000 282.984000
52.249000 21.511000 282.967000
52.562000 21.506000 282.902000
52.873000 21.500000 282.825000
53.193000 21.498000 282.800000
53.500000 21.492000 282.710000
53.829000 21.493000 282.731000
54.150000 21.492000 282.710000
54.451000 21.482000 282.587000
54.759000 21.476000 282.505000
55.075000 21.473000 282.461000
55.387000 21.468000 282.396000
55.702000 21.464000 282.351000
56.021000 21.462000 282.323000
56.343000 21.461000 282.313000
56.653000 21.456000 282.244000
56.972000 21.454000 282.219000
57.276000 21.447000 282.119000
57.592000 21.444000 282.083000
57.904000 21.439000 282.021000
58.221000 21.437000 281.990000
58.536000 21.433000 281.945000
58.853000 21.431000 281.915000
149.342000 21.503000 282.856000
149.529000 21.483000 282.595000
149.727000 21.465000 282.356000
149.902000 21.443000 282.076000
150.107000 21.426000 281.853000
150.280000 21.405000 281.570000
150.492000 21.389000 281.363000
150.687000 21.371000 281.123000
150.890000 21.354000 280.899000
151.091000 21.337000 280.674000
151.290000 21.320000 280.446000
151.504000 21.304000 280.245000
151.701000 21.287000 280.016000
151.918000 21.272000 279.823000
152.139000 21.258000 279.639000
152.366000 21.245000 279.466000
152.562000 21.228000 279.237000
152.799000 21.216000 279.084000
153.016000 21.202000 278.896000
153.261000 21.191000 278.759000
153.487000 21.178000 278.588000
153.690000 21.162000 278.377000
153.938000 21.152000 278.246000
154.171000 21.141000 278.092000
154.426000 21.132000 277.976000
154.628000 21.116000 277.764000
154.901000 21.109000 277.683000
155.128000 21.097000 277.519000
155.383000 21.088000 277.405000
155.633000 21.079000 277.282000
155.873000 21.068000 277.143000
156.115000 21.058000 277.007000
156.380000 21.051000 276.914000
156.662000 21.046000 276.850000
156.890000 21.034000 276.692000
157.188000 21.031000 276.656000
35.836000 22.134000 286.826000
36.165000 22.134000 286.824000
36.479000 22.125000 286.707000
36.829000 22.137000 286.867000
37.142000 22.127000 286.738000
37.431000 22.104000 286.434000
37.784000 22.118000 286.614000
38.083000 22.100000 286.389000
38.400000 22.093000 286.302000
38.765000 22.114000 286.567000
39.092000 22.113000 286.552000
39.412000 22.108000 286.490000
39.724000 22.099000 286.369000
40.048000 22.096000 286.329000
40.367000 22.090000 286.259000
40.664000 22.073000 286.037000
40.975000 22.064000 285.919000
41.288000 22.056000 285.813000
41.599000 22.047000 285.695000
41.884000 22.024000 285.399000
45.325000 21.944000 284.372000
45.638000 21.938000 284.285000
46.005000 21.957000 284.537000
46.320000 21.952000 284.469000
46.642000 21.950000 284.440000
46.957000 21.944000 284.366000
47.274000 21.940000 284.313000
47.589000 21.935000 284.243000
47.911000 21.932000 284.213000
48.226000 21.927000 284.150000
48.546000 21.925000 284.114000
48.861000 21.920000 284.049000
49.174000 21.914000 283.974000
49.492000 21.910000 283.925000
49.813000 21.908000 283.897000
50.140000 21.908000 283.901000
50.454000 21.903000 283.833000
50.767000 21.897000 283.762000
51.081000 21.892000 283.696000
51.393000 21.887000 283.622000
51.702000 21.879000 283.528000
52.021000 21.877000 283.495000
52.343000 21.875000 283.476000
52.653000 21.869000 283.392000
52.968000 21.864000 283.333000
53.283000 21.860000 283.280000
53.597000 21.856000 283.223000
53.917000 21.854000 283.194000
54.239000 21.852000 283.177000
54.545000 21.845000 283.078000
54.851000 21.837000 282.979000
55.170000 21.835000 282.947000
55.486000 21.831000 282.903000
55.810000 21.831000 282.899000
56.119000 21.825000 282.820000
56.434000 21.821000 282.768000
56.750000 21.817000 282.724000
57.066000 21.814000 282.683000
57.374000 21.808000 282.602000
57.691000 21.805000 282.566000
58.010000 21.803000 282.539000
58.327000 21.800000 282.501000
58.638000 21.795000 282.439000
58.952000 21.792000 282.391000
59.260000 21.786000 282.312000
59.569000 21.780000 282.242000
59.883000 21.776000 282.193000
149.638000 21.823000 282.801000
149.820000 21.802000 282.531000
149.997000 21.781000 282.255000
150.199000 21.763000 282.025000
150.382000 21.743000 281.762000
150.601000 21.728000 281.566000
150.798000 21.710000 281.330000
150.991000 21.691000 281.088000
151.197000 21.674000 280.872000
151.398000 21.657000 280.647000
151.606000 21.641000 280.435000
151.812000 21.624000 280.220000
152.030000 21.609000 280.030000
152.227000 21.592000 279.801000
152.465000 21.580000 279.648000
152.657000 21.562000 279.412000
152.879000 21.548000 279.230000
153.097000 21.533000 279.043000
153.346000 21.523000 278.914000
153.586000 21.512000 278.768000
153.800000 21.497000 278.575000
154.030000 21.485000 278.414000
154.259000 21.472000 278.250000
154.518000 21.464000 278.142000
154.734000 21.449000 277.956000
155.003000 21.442000 277.865000
155.244000 21.432000 277.725000
155.493000 21.422000 277.602000
155.706000 21.407000 277.413000
155.947000 21.397000 277.274000
156.216000 21.390000 277.187000
156.491000 21.384000 277.111000
156.757000 21.377000 277.019000
156.997000 21.366000 276.881000
157.281000 21.362000 276.820000
35.626000 22.539000 287.793000
35.940000 22.529000 287.663000
36.238000 22.509000 287.408000
36.598000 22.527000 287.639000
36.893000 22.506000 287.370000
37.249000 22.521000 287.569000
37.549000 22.503000 287.335000
37.869000 22.497000 287.263000
38.196000 22.496000 287.242000
38.521000 22.493000 287.207000
38.822000 22.476000 286.991000
39.180000 22.492000 287.199000
39.467000 22.468000 286.889000
39.815000 22.479000 287.023000
40.122000 22.466000 286.860000
42.054000 22.442000 286.556000
45.457000 22.336000 285.202000
45.753000 22.321000 285.005000
46.071000 22.316000 284.944000
46.396000 22.315000 284.935000
46.727000 22.317000 284.956000
47.038000 22.309000 284.860000
47.360000 22.307000 284.828000
47.677000 22.302000 284.770000
47.996000 22.298000 284.722000
48.321000 22.297000 284.710000
48.636000 22.292000 284.640000
48.950000 22.286000 284.565000
49.272000 22.284000 284.540000
49.589000 22.280000 284.483000
49.914000 22.279000 284.474000
50.238000 22.277000 284.455000
50.550000 22.271000 284.373000
50.869000 22.268000 284.331000
51.181000 22.262000 284.254000
51.487000 22.253000 284.138000
51.802000 22.248000 284.076000
52.124000 22.246000 284.057000
52.439000 22.242000 283.996000
52.752000 22.236000 283.924000
53.068000 22.232000 283.869000
53.391000 22.230000 283.853000
53.701000 22.224000 283.773000
54.022000 22.222000 283.744000
54.336000 22.217000 283.683000
54.654000 22.214000 283.644000
54.957000 22.205000 283.527000
55.275000 22.202000 283.487000
55.597000 22.200000 283.470000
55.910000 22.195000 283.405000
56.215000 22.187000 283.304000
56.541000 22.187000 283.305000
56.851000 22.181000 283.228000
57.167000 22.178000 283.183000
57.488000 22.176000 283.162000
57.806000 22.174000 283.129000
58.118000 22.169000 283.064000
58.428000 22.163000 282.992000
58.739000 22.158000 282.925000
59.053000 22.154000 282.873000
59.361000 22.147000 282.794000
59.671000 22.142000 282.723000
59.992000 22.140000 282.704000
60.309000 22.138000 282.669000
60.622000 22.134000 282.618000
60.936000 22.130000 282.566000
61.250000 22.126000 282.518000
61.552000 22.118000 282.418000
149.917000 22.141000 282.714000
150.096000 22.120000 282.440000
150.302000 22.102000 282.218000
150.486000 22.082000 281.956000
150.695000 22.065000 281.742000
150.887000 22.046000 281.497000
151.102000 22.030000 281.295000
151.311000 22.013000 281.083000
151.495000 21.993000 280.826000
151.713000 21.978000 280.632000
151.900000 21.959000 280.382000
152.115000 21.943000 280.186000
152.327000 21.927000 279.984000
152.563000 21.915000 279.828000
152.744000 21.895000 279.571000
152.980000 21.883000 279.416000
153.208000 21.870000 279.247000
153.437000 21.857000 279.079000
153.670000 21.844000 278.920000
153.898000 21.831000 278.753000
154.119000 21.817000 278.574000
154.344000 21.804000 278.403000
154.630000 21.799000 278.343000
154.816000 21.780000 278.102000
155.084000 21.773000 278.010000
155.334000 21.763000 277.887000
155.579000 21.753000 277.754000
155.797000 21.739000 277.574000
156.059000 21.731000 277.473000
156.345000 21.726000 277.417000
156.595000 21.717000 277.295000
156.843000 21.707000 277.171000
157.073000 21.695000 277.015000
157.376000 21.693000 276.989000
35.003000 22.894000 288.107000
35.335000 22.895000 288.114000
35.656000 22.889000 288.034000
35.958000 22.870000 287.804000
36.316000 22.888000 288.024000
36.613000 22.867000 287.759000
36.908000 22.845000 287.483000
37.268000 22.863000 287.718000
37.573000 22.848000 287.521000
37.909000 22.851000 287.564000
38.238000 22.851000 287.558000
38.542000 22.835000 287.360000
38.901000 22.852000 287.572000
39.194000 22.830000 287.300000
39.482000 22.806000 286.994000
39.840000 22.822000 287.201000
40.146000 22.809000 287.030000
42.112000 22.803000 286.954000
44.923000 22.725000 285.971000
45.231000 22.714000 285.843000
45.538000 22.704000 285.709000
45.826000 22.684000 285.459000
46.151000 22.683000 285.443000
46.494000 22.690000 285.537000
46.783000 22.671000 285.296000
47.091000 22.662000 285.179000
47.430000 22.667000 285.246000
47.752000 22.665000 285.215000
48.070000 22.660000 285.161000
48.392000 22.658000 285.129000
48.716000 22.656000 285.110000
49.035000 22.652000 285.056000
49.365000 22.654000 285.076000
49.689000 22.652000 285.053000
50.008000 22.648000 285.009000
50.325000 22.643000 284.947000
50.632000 22.635000 284.838000
50.953000 22.632000 284.800000
51.276000 22.630000 284.780000
51.589000 22.624000 284.700000
51.898000 22.616000 284.604000
52.223000 22.615000 284.592000
52.533000 22.608000 284.506000
52.863000 22.609000 284.519000
53.177000 22.604000 284.453000
53.490000 22.598000 284.378000
53.802000 22.592000 284.303000
54.117000 22.587000 284.242000
54.427000 22.581000 284.160000
54.745000 22.577000 284.113000
55.046000 22.567000 283.983000
55.381000 22.570000 284.028000
55.694000 22.565000 283.964000
56.008000 22.560000 283.902000
56.322000 22.555000 283.840000
56.641000 22.553000 283.807000
56.953000 22.547000 283.738000
57.271000 22.544000 283.700000
57.585000 22.540000 283.644000
57.902000 22.536000 283.599000
58.215000 22.531000 283.538000
58.525000 22.525000 283.464000
58.842000 22.522000 283.423000
59.159000 22.519000 283.383000
59.471000 22.514000 283.316000
59.785000 22.509000 283.263000
60.103000 22.507000 283.229000
60.414000 22.502000 283.163000
60.727000 22.497000 283.104000
61.039000 22.492000 283.043000
61.349000 22.487000 282.978000
61.662000 22.482000 282.922000
61.977000 22.479000 282.874000
62.285000 22.473000 282.799000
62.591000 22.466000 282.713000
62.907000 22.463000 282.675000
150.031000 22.483000 282.930000
150.208000 22.461000 282.651000
150.428000 22.445000 282.455000
150.603000 22.423000 282.175000
150.803000 22.405000 281.944000
150.990000 22.384000 281.689000
151.199000 22.367000 281.474000
151.404000 22.350000 281.256000
151.587000 22.329000 280.997000
151.800000 22.313000 280.793000
151.985000 22.293000 280.541000
152.216000 22.280000 280.372000
152.445000 22.266000 280.201000
152.666000 22.251000 280.016000
152.857000 22.232000 279.777000
153.103000 22.222000 279.640000
153.337000 22.209000 279.481000
153.554000 22.194000 279.292000
153.769000 22.179000 279.100000
153.993000 22.165000 278.926000
154.224000 22.152000 278.763000
154.443000 22.137000 278.582000
154.721000 22.132000 278.507000
154.922000 22.115000 278.294000
155.169000 22.104000 278.163000
155.419000 22.094000 278.038000
155.680000 22.086000 277.936000
155.915000 22.074000 277.785000
156.181000 22.067000 277.691000
156.448000 22.059000 277.598000
156.680000 22.047000 277.444000
156.917000 22.036000 277.301000
157.162000 22.025000 277.171000
157.478000 22.025000 277.167000
35.101000 23.290000 288.911000
35.410000 23.275000 288.730000
35.774000 23.296000 288.990000
36.070000 23.273000 288.702000
36.365000 23.250000 288.417000
36.725000 23.268000 288.639000
37.031000 23.252000 288.444000
37.357000 23.249000 288.404000
37.695000 23.253000 288.457000
38.002000 23.239000 288.272000
38.362000 23.256000 288.490000
38.656000 23.234000 288.210000
38.952000 23.212000 287.948000
39.314000 23.231000 288.180000
39.619000 23.216000 287.995000
39.947000 23.214000 287.972000
40.287000 23.220000 288.044000
42.199000 23.180000 287.545000
42.523000 23.176000 287.502000
42.865000 23.183000 287.588000
43.161000 23.165000 287.358000
43.466000 23.151000 287.192000
43.784000 23.145000 287.114000
44.083000 23.129000 286.915000
44.454000 23.151000 287.186000
44.772000 23.145000 287.107000
45.063000 23.125000 286.863000
45.376000 23.116000 286.757000
45.696000 23.112000 286.701000
45.999000 23.099000 286.537000
46.293000 23.081000 286.322000
46.578000 23.059000 286.051000
46.870000 23.042000 285.831000
47.220000 23.052000 285.960000
47.526000 23.041000 285.828000
47.827000 23.028000 285.666000
48.157000 23.029000 285.678000
48.478000 23.026000 285.633000
48.782000 23.015000 285.494000
49.128000 23.023000 285.598000
49.454000 23.022000 285.589000
49.763000 23.013000 285.477000
50.088000 23.012000 285.465000
50.407000 23.008000 285.413000
50.722000 23.002000 285.341000
51.044000 23.000000 285.310000
51.362000 22.996000 285.259000
51.680000 22.991000 285.206000
52.000000 22.988000 285.163000
52.328000 22.988000 285.165000
52.637000 22.980000 285.066000
52.959000 22.978000 285.036000
53.277000 22.974000 284.987000
53.586000 22.966000 284.892000
53.898000 22.960000 284.812000
54.220000 22.957000 284.785000
54.532000 22.951000 284.705000
54.845000 22.945000 284.636000
55.157000 22.939000 284.559000
55.484000 22.939000 284.560000
55.802000 22.935000 284.513000
56.118000 22.931000 284.462000
56.427000 22.924000 284.372000
56.746000 22.921000 284.334000
57.060000 22.916000 284.273000
57.375000 22.911000 284.215000
57.692000 22.908000 284.166000
58.003000 22.902000 284.096000
58.325000 22.900000 284.074000
58.641000 22.896000 284.024000
58.946000 22.888000 283.923000
59.256000 22.882000 283.847000
59.573000 22.878000 283.804000
59.888000 22.874000 283.749000
60.204000 22.870000 283.703000
60.521000 22.867000 283.665000
60.841000 22.865000 283.637000
61.154000 22.860000 283.576000
61.463000 22.854000 283.499000
61.772000 22.848000 283.425000
62.090000 22.845000 283.390000
62.403000 22.841000 283.335000
62.720000 22.838000 283.300000
63.040000 22.836000 283.276000
150.546000 22.787000 282.677000
150.710000 22.763000 282.376000
150.921000 22.746000 282.164000
151.113000 22.726000 281.918000
151.320000 22.709000 281.701000
151.530000 22.692000 281.490000
151.715000 22.671000 281.233000
151.921000 22.654000 281.017000
152.115000 22.635000 280.780000
152.335000 22.619000 280.592000
152.539000 22.602000 280.374000
152.760000 22.587000 280.189000
152.959000 22.569000 279.965000
153.195000 22.556000 279.808000
153.428000 22.543000 279.646000
153.654000 22.529000 279.473000
153.879000 22.515000 279.300000
154.113000 22.503000 279.143000
154.349000 22.490000 278.990000
154.576000 22.477000 278.821000
154.836000 22.468000 278.714000
155.058000 22.454000 278.537000
155.283000 22.440000 278.368000
155.525000 22.429000 278.228000
155.786000 22.420000 278.123000
156.024000 22.409000 277.980000
156.281000 22.400000 277.868000
156.542000 22.392000 277.766000
156.781000 22.380000 277.624000
157.020000 22.369000 277.483000
157.271000 22.359000 277.364000
157.588000 22.359000 277.362000
34.819000 23.656000 289.328000
35.135000 23.645000 289.191000
35.441000 23.628000 288.982000
35.796000 23.643000 289.169000
36.092000 23.619000 288.881000
36.445000 23.633000 289.049000
36.754000 23.618000 288.871000
37.071000 23.609000 288.754000
37.406000 23.611000 288.781000
37.722000 23.601000 288.658000
38.022000 23.582000 288.425000
38.380000 23.598000 288.625000
38.676000 23.577000 288.360000
39.030000 23.591000 288.530000
39.341000 23.578000 288.376000
39.657000 23.569000 288.267000
39.997000 23.574000 288.333000
40.308000 23.563000 288.190000
40.608000 23.545000 287.969000
40.966000 23.561000 288.163000
41.257000 23.538000 287.888000
41.610000 23.551000 288.040000
41.918000 23.538000 287.881000
42.231000 23.528000 287.762000
42.602000 23.550000 288.036000
42.915000 23.541000 287.920000
43.250000 23.543000 287.947000
43.536000 23.519000 287.653000
43.825000 23.497000 287.382000
44.186000 23.514000 287.588000
44.526000 23.518000 287.647000
44.828000 23.504000 287.468000
45.136000 23.492000 287.329000
45.458000 23.488000 287.274000
45.799000 23.494000 287.344000
46.100000 23.479000 287.164000
46.397000 23.463000 286.965000
46.736000 23.467000 287.020000
47.026000 23.447000 286.778000
47.321000 23.431000 286.573000
47.634000 23.423000 286.477000
47.946000 23.414000 286.374000
48.248000 23.401000 286.215000
48.549000 23.388000 286.050000
48.873000 23.386000 286.023000
49.222000 23.396000 286.145000
49.512000 23.377000 285.922000
49.825000 23.370000 285.834000
50.160000 23.373000 285.874000
50.488000 23.373000 285.871000
50.800000 23.366000 285.783000
51.127000 23.365000 285.772000
51.447000 23.362000 285.729000
51.774000 23.361000 285.726000
52.095000 23.358000 285.687000
52.420000 23.357000 285.668000
55.267000 23.312000 285.124000
55.590000 23.310000 285.102000
55.912000 23.308000 285.075000
56.226000 23.303000 285.009000
56.542000 23.298000 284.952000
56.850000 23.290000 284.855000
57.164000 23.285000 284.789000
57.476000 23.279000 284.716000
57.789000 23.273000 284.644000
58.107000 23.269000 284.601000
58.424000 23.266000 284.555000
58.736000 23.260000 284.486000
59.047000 23.253000 284.407000
59.358000 23.247000 284.333000
59.675000 23.244000 284.287000
59.993000 23.240000 284.247000
60.309000 23.236000 284.198000
60.633000 23.236000 284.189000
60.956000 23.234000 284.173000
61.261000 23.226000 284.073000
61.567000 23.219000 283.979000
61.884000 23.215000 283.939000
62.203000 23.213000 283.906000
62.519000 23.209000 283.862000
62.837000 23.206000 283.828000
63.143000 23.199000 283.737000
63.469000 23.199000 283.735000
63.781000 23.194000 283.675000
64.090000 23.188000 283.601000
150.831000 23.106000 282.603000
151.059000 23.091000 282.423000
151.256000 23.072000 282.185000
151.451000 23.052000 281.945000
151.650000 23.033000 281.712000
151.843000 23.013000 281.471000
152.050000 22.996000 281.255000
152.253000 22.978000 281.034000
152.473000 22.962000 280.846000
152.657000 22.941000 280.590000
152.875000 22.926000 280.400000
153.066000 22.906000 280.161000
153.309000 22.894000 280.016000
153.536000 22.880000 279.843000
153.767000 22.867000 279.679000
154.010000 22.855000 279.538000
154.249000 22.843000 279.390000
154.487000 22.831000 279.240000
154.726000 22.819000 279.093000
154.969000 22.808000 278.953000
155.178000 22.791000 278.753000
155.419000 22.780000 278.611000
155.655000 22.767000 278.461000
155.904000 22.757000 278.334000
156.132000 22.744000 278.172000
156.391000 22.735000 278.065000
156.651000 22.726000 277.960000
156.890000 22.715000 277.816000
157.128000 22.703000 277.674000
157.381000 22.693000 277.558000
157.698000 22.693000 277.555000
34.223000 24.036000 289.907000
34.570000 24.046000 290.022000
34.879000 24.029000 289.821000
35.241000 24.049000 290.063000
35.541000 24.027000 289.796000
35.849000 24.010000 289.592000
36.200000 24.023000 289.744000
36.518000 24.013000 289.625000
36.849000 24.012000 289.617000
37.175000 24.008000 289.566000
37.478000 23.989000 289.333000
37.841000 24.008000 289.571000
38.139000 23.987000 289.311000
38.457000 23.978000 289.201000
38.795000 23.981000 289.244000
39.101000 23.965000 289.050000
39.437000 23.967000 289.080000
39.770000 23.969000 289.093000
40.075000 23.952000 288.899000
40.439000 23.972000 289.128000
40.731000 23.948000 288.845000
41.069000 23.951000 288.885000
41.385000 23.943000 288.779000
41.697000 23.931000 288.645000
42.034000 23.934000 288.681000
42.365000 23.934000 288.674000
42.675000 23.922000 288.530000
42.982000 23.909000 288.373000
43.300000 23.901000 288.279000
43.669000 23.922000 288.532000
43.970000 23.906000 288.336000
44.284000 23.896000 288.220000
44.620000 23.899000 288.254000
44.937000 23.892000 288.165000
45.234000 23.874000 287.950000
45.609000 23.897000 288.228000
45.901000 23.877000 287.985000
46.214000 23.868000 287.874000
46.525000 23.858000 287.754000
46.828000 23.844000 287.589000
47.133000 23.831000 287.432000
47.460000 23.829000 287.411000
47.802000 23.835000 287.483000
48.098000 23.818000 287.281000
48.429000 23.819000 287.292000
48.742000 23.811000 287.190000
49.028000 23.789000 286.932000
49.316000 23.769000 286.691000
49.603000 23.749000 286.449000
49.942000 23.754000 286.506000
50.260000 23.749000 286.444000
50.563000 23.737000 286.298000
50.886000 23.734000 286.263000
55.379000 23.688000 285.704000
55.700000 23.685000 285.667000
56.012000 23.678000 285.583000
56.323000 23.670000 285.497000
56.636000 23.665000 285.426000
56.957000 23.662000 285.390000
57.268000 23.655000 285.309000
57.585000 23.650000 285.254000
57.900000 23.645000 285.191000
58.215000 23.640000 285.132000
58.531000 23.636000 285.076000
58.845000 23.630000 285.010000
59.162000 23.626000 284.961000
59.478000 23.622000 284.907000
59.791000 23.616000 284.840000
60.105000 23.611000 284.777000
60.422000 23.607000 284.733000
60.740000 23.604000 284.690000
61.062000 23.602000 284.666000
61.369000 23.594000 284.573000
61.681000 23.588000 284.508000
61.995000 23.584000 284.450000
62.311000 23.580000 284.401000
62.629000 23.576000 284.361000
62.946000 23.573000 284.319000
63.265000 23.570000 284.283000
63.585000 23.568000 284.256000
63.891000 23.560000 284.166000
64.214000 23.559000 284.149000
151.183000 23.435000 282.654000
151.373000 23.414000 282.403000
151.559000 23.393000 282.146000
151.757000 23.373000 281.911000
151.951000 23.353000 281.672000
152.159000 23.335000 281.457000
152.358000 23.316000 281.228000
152.582000 23.301000 281.046000
152.769000 23.281000 280.796000
153.016000 23.269000 280.659000
153.206000 23.249000 280.415000
153.448000 23.237000 280.269000
153.663000 23.221000 280.075000
153.888000 23.206000 279.900000
154.129000 23.194000 279.753000
154.361000 23.181000 279.592000
154.596000 23.168000 279.437000
154.836000 23.156000 279.291000
155.079000 23.144000 279.150000
155.284000 23.127000 278.943000
155.527000 23.116000 278.805000
155.775000 23.105000 278.676000
156.026000 23.095000 278.553000
156.254000 23.081000 278.388000
156.512000 23.072000 278.279000
156.777000 23.064000 278.182000
157.008000 23.051000 278.026000
157.247000 23.039000 277.884000
157.501000 23.030000 277.769000
157.829000 23.031000 277.785000
33.625000 24.418000 290.492000
33.962000 24.420000 290.518000
34.298000 24.422000 290.540000
34.604000 24.403000 290.306000
34.966000 24.423000 290.548000
35.266000 24.400000 290.273000
35.572000 24.381000 290.045000
35.925000 24.394000 290.210000
38.163000 24.334000 289.492000
38.523000 24.352000 289.700000
38.830000 24.335000 289.509000
39.152000 24.329000 289.428000
40.755000 24.294000 289.015000
41.110000 24.308000 289.177000
41.414000 24.291000 288.979000
41.736000 24.285000 288.913000
42.106000 24.308000 289.176000
42.423000 24.299000 289.076000
42.747000 24.294000 289.019000
43.035000 24.270000 288.724000
43.329000 24.249000 288.475000
43.693000 24.267000 288.694000
43.994000 24.250000 288.494000
44.322000 24.248000 288.467000
44.663000 24.253000 288.533000
44.962000 24.236000 288.326000
45.345000 24.264000 288.659000
45.658000 24.254000 288.541000
45.987000 24.253000 288.524000
46.303000 24.245000 288.432000
46.618000 24.237000 288.333000
46.926000 24.225000 288.191000
47.245000 24.219000 288.118000
47.560000 24.210000 288.018000
47.871000 24.200000 287.899000
48.182000 24.190000 287.783000
48.531000 24.200000 287.892000
48.842000 24.190000 287.779000
49.147000 24.177000 287.628000
49.471000 24.174000 287.590000
49.766000 24.157000 287.388000
55.480000 24.060000 286.226000
55.798000 24.055000 286.171000
56.111000 24.048000 286.090000
56.416000 24.038000 285.969000
56.738000 24.035000 285.940000
57.055000 24.031000 285.882000
57.366000 24.024000 285.797000
57.695000 24.024000 285.799000
58.016000 24.021000 285.763000
58.326000 24.013000 285.677000
58.642000 24.009000 285.619000
58.961000 24.005000 285.575000
59.280000 24.001000 285.530000
59.592000 23.995000 285.456000
59.901000 23.987000 285.367000
60.219000 23.983000 285.320000
60.536000 23.979000 285.271000
60.855000 23.976000 285.227000
61.170000 23.971000 285.170000
61.482000 23.965000 285.097000
61.792000 23.958000 285.017000
62.105000 23.953000 284.953000
62.427000 23.950000 284.929000
62.750000 23.949000 284.913000
63.064000 23.944000 284.853000
63.384000 23.941000 284.821000
63.693000 23.934000 284.738000
64.002000 23.928000 284.660000
64.319000 23.924000 284.615000
64.630000 23.918000 284.544000
64.947000 23.915000 284.505000
65.265000 23.911000 284.463000
65.585000 23.909000 284.438000
65.900000 23.905000 284.385000
66.209000 23.899000 284.312000
66.523000 23.894000 284.256000
66.830000 23.887000 284.173000
67.145000 23.883000 284.126000
67.461000 23.880000 284.086000
67.791000 23.881000 284.098000
68.101000 23.875000 284.033000
68.429000 23.876000 284.042000
151.491000 23.757000 282.624000
151.695000 23.738000 282.398000
151.891000 23.718000 282.160000
152.081000 23.697000 281.912000
152.283000 23.678000 281.686000
152.478000 23.658000 281.450000
152.692000 23.641000 281.248000
152.888000 23.622000 281.016000
153.158000 23.613000 280.919000
153.345000 23.593000 280.670000
153.575000 23.578000 280.502000
153.798000 23.563000 280.321000
154.021000 23.548000 280.142000
154.242000 23.533000 279.958000
154.469000 23.518000 279.787000
154.708000 23.506000 279.640000
154.936000 23.492000 279.472000
155.183000 23.481000 279.337000
155.391000 23.464000 279.136000
155.657000 23.455000 279.037000
155.904000 23.444000 278.906000
156.170000 23.436000 278.809000
156.382000 23.420000 278.616000
156.633000 23.410000 278.495000
156.902000 23.402000 278.404000
157.144000 23.390000 278.266000
157.393000 23.380000 278.142000
157.640000 23.369000 278.015000
157.978000 23.372000 278.047000
33.732000 24.830000 291.416000
34.044000 24.814000 291.222000
34.353000 24.796000 291.007000
34.696000 24.802000 291.081000
35.001000 24.781000 290.835000
35.358000 24.797000 291.026000
35.670000 24.782000 290.847000
35.988000 24.771000 290.718000
38.274000 24.738000 290.330000
38.594000 24.729000 290.231000
38.933000 24.733000 290.273000
40.875000 24.698000 289.865000
41.197000 24.692000 289.787000
41.552000 24.705000 289.944000
41.857000 24.688000 289.749000
42.192000 24.690000 289.763000
42.511000 24.682000 289.670000
42.806000 24.660000 289.417000
43.170000 24.679000 289.633000
43.485000 24.668000 289.515000
43.791000 24.654000 289.341000
44.114000 24.648000 289.279000
44.443000 24.647000 289.258000
44.769000 24.643000 289.217000
45.086000 24.635000 289.124000
45.387000 24.618000 288.922000
45.761000 24.641000 289.191000
46.078000 24.633000 289.099000
46.381000 24.618000 288.917000
46.702000 24.612000 288.849000
47.024000 24.607000 288.792000
47.348000 24.603000 288.741000
47.660000 24.593000 288.624000
47.964000 24.578000 288.459000
48.344000 24.604000 288.755000
48.646000 24.589000 288.579000
48.951000 24.575000 288.420000
49.268000 24.568000 288.336000
49.582000 24.560000 288.237000
62.548000 24.325000 285.484000
62.863000 24.320000 285.426000
63.178000 24.315000 285.366000
63.489000 24.308000 285.290000
63.806000 24.305000 285.244000
64.114000 24.297000 285.156000
64.427000 24.292000 285.092000
64.749000 24.290000 285.071000
65.063000 24.285000 285.012000
65.380000 24.281000 284.966000
65.697000 24.277000 284.923000
66.018000 24.275000 284.895000
66.329000 24.269000 284.826000
66.644000 24.264000 284.773000
66.952000 24.258000 284.693000
67.265000 24.253000 284.635000
67.589000 24.252000 284.623000
67.910000 24.250000 284.598000
68.228000 24.247000 284.564000
68.538000 24.240000 284.492000
68.848000 24.235000 284.425000
69.167000 24.232000 284.393000
69.487000 24.230000 284.366000
151.828000 24.083000 282.646000
152.027000 24.063000 282.413000
152.214000 24.042000 282.158000
152.424000 24.024000 281.948000
152.615000 24.003000 281.702000
152.843000 23.988000 281.526000
153.045000 23.969000 281.304000
153.293000 23.957000 281.167000
153.486000 23.937000 280.928000
153.725000 23.924000 280.775000
153.954000 23.909000 280.606000
154.167000 23.892000 280.407000
154.370000 23.874000 280.191000
154.593000 23.859000 280.012000
154.847000 23.848000 279.890000
155.070000 23.833000 279.713000
155.291000 23.818000 279.532000
155.515000 23.803000 279.359000
155.805000 23.798000 279.303000
156.023000 23.783000 279.120000
156.289000 23.774000 279.022000
156.519000 23.761000 278.861000
156.777000 23.751000 278.750000
157.038000 23.742000 278.646000
157.296000 23.733000 278.536000
157.564000 23.725000 278.444000
157.799000 23.712000 278.294000
158.118000 23.712000 278.293000
33.838000 25.244000 292.331000
34.147000 25.224000 292.100000
34.447000 25.199000 291.806000
34.748000 25.174000 291.515000
35.100000 25.187000 291.664000
35.407000 25.166000 291.432000
35.725000 25.155000 291.295000
36.069000 25.161000 291.373000
40.938000 25.070000 290.312000
41.269000 25.068000 290.292000
41.586000 25.059000 290.183000
41.883000 25.037000 289.930000
42.247000 25.055000 290.145000
42.540000 25.032000 289.871000
42.908000 25.052000 290.106000
43.240000 25.051000 290.100000
43.557000 25.042000 289.995000
43.876000 25.034000 289.902000
44.212000 25.036000 289.919000
44.529000 25.027000 289.817000
44.832000 25.011000 289.627000
45.123000 24.987000 289.359000
45.495000 25.009000 289.609000
45.828000 25.009000 289.612000
46.146000 25.001000 289.521000
46.466000 24.995000 289.446000
46.788000 24.989000 289.381000
47.104000 24.980000 289.279000
47.410000 24.967000 289.123000
47.702000 24.946000 288.877000
48.084000 24.972000 289.183000
48.407000 24.967000 289.127000
48.731000 24.964000 289.082000
49.050000 24.957000 289.004000
49.364000 24.948000 288.902000
49.683000 24.941000 288.825000
62.665000 24.699000 286.016000
62.980000 24.694000 285.956000
63.297000 24.689000 285.903000
63.619000 24.686000 285.873000
63.925000 24.678000 285.777000
64.235000 24.671000 285.695000
64.546000 24.665000 285.621000
64.862000 24.660000 285.568000
65.178000 24.655000 285.515000
65.501000 24.654000 285.494000
65.820000 24.650000 285.456000
66.138000 24.647000 285.412000
66.444000 24.639000 285.319000
66.762000 24.635000 285.280000
67.076000 24.630000 285.219000
67.395000 24.627000 285.183000
67.716000 24.624000 285.156000
68.031000 24.620000 285.105000
68.346000 24.616000 285.056000
68.657000 24.610000 284.986000
68.969000 24.604000 284.924000
69.288000 24.601000 284.889000
69.612000 24.600000 284.876000
69.921000 24.594000 284.803000
70.241000 24.592000 284.776000
70.553000 24.586000 284.716000
70.865000 24.581000 284.653000
71.180000 24.577000 284.607000
71.491000 24.572000 284.545000
71.800000 24.566000 284.475000
72.137000 24.569000 284.516000
152.190000 24.414000 282.716000
152.381000 24.392000 282.468000
152.581000 24.373000 282.238000
152.775000 24.352000 281.998000
153.027000 24.340000 281.865000
153.223000 24.320000 281.630000
153.449000 24.305000 281.452000
153.650000 24.285000 281.228000
153.898000 24.274000 281.092000
154.111000 24.256000 280.891000
154.318000 24.238000 280.681000
154.521000 24.219000 280.466000
154.736000 24.203000 280.271000
154.995000 24.193000 280.159000
155.209000 24.176000 279.964000
155.431000 24.161000 279.785000
155.678000 24.149000 279.651000
155.935000 24.139000 279.536000
156.129000 24.120000 279.308000
156.391000 24.111000 279.205000
156.683000 24.106000 279.154000
156.947000 24.097000 279.052000
157.195000 24.086000 278.924000
157.449000 24.076000 278.807000
157.706000 24.067000 278.695000
157.943000 24.054000 278.549000
158.238000 24.050000 278.505000
29.312000 25.732000 294.068000
29.648000 25.731000 294.057000
30.006000 25.748000 294.259000
30.338000 25.743000 294.198000
30.676000 25.743000 294.201000
30.994000 25.727000 294.012000
31.333000 25.728000 294.027000
31.660000 25.720000 293.929000
31.985000 25.709000 293.813000
32.317000 25.705000 293.759000
32.650000 25.702000 293.727000
32.974000 25.691000 293.604000
33.300000 25.683000 293.508000
33.604000 25.657000 293.216000
33.900000 25.627000 292.867000
34.199000 25.599000 292.549000
34.549000 25.609000 292.671000
34.863000 25.593000 292.484000
35.180000 25.580000 292.329000
35.504000 25.571000 292.226000
35.827000 25.562000 292.126000
36.138000 25.544000 291.928000
36.476000 25.547000 291.951000
38.076000 25.495000 291.368000
40.689000 25.456000 290.918000
41.037000 25.464000 291.010000
41.338000 25.444000 290.777000
41.714000 25.469000 291.071000
42.003000 25.442000 290.760000
42.296000 25.418000 290.482000
42.672000 25.443000 290.772000
42.995000 25.437000 290.699000
43.324000 25.434000 290.662000
43.646000 25.427000 290.587000
43.949000 25.409000 290.385000
44.311000 25.425000 290.568000
44.601000 25.401000 290.284000
44.931000 25.399000 290.263000
45.266000 25.400000 290.277000
45.587000 25.393000 290.194000
45.931000 25.399000 290.265000
46.253000 25.393000 290.192000
46.555000 25.376000 290.000000
46.878000 25.370000 289.939000
47.193000 25.360000 289.825000
47.515000 25.355000 289.762000
47.844000 25.353000 289.742000
48.174000 25.352000 289.723000
48.492000 25.344000 289.634000
48.802000 25.332000 289.502000
49.133000 25.331000 289.492000
49.496000 25.347000 289.672000
49.790000 25.327000 289.445000
62.776000 25.071000 286.521000
63.094000 25.067000 286.471000
63.413000 25.063000 286.428000
63.730000 25.058000 286.374000
64.046000 25.053000 286.315000
64.365000 25.050000 286.273000
64.666000 25.039000 286.152000
64.987000 25.036000 286.119000
65.305000 25.032000 286.071000
65.627000 25.029000 286.043000
65.936000 25.022000 285.957000
66.247000 25.016000 285.885000
66.559000 25.010000 285.815000
66.882000 25.007000 285.791000
67.200000 25.004000 285.750000
67.527000 25.003000 285.742000
67.844000 24.999000 285.696000
68.156000 24.993000 285.629000
68.468000 24.988000 285.564000
68.781000 24.982000 285.501000
69.097000 24.978000 285.451000
69.413000 24.974000 285.404000
69.732000 24.971000 285.370000
70.045000 24.965000 285.309000
70.371000 24.965000 285.304000
70.675000 24.956000 285.206000
70.990000 24.952000 285.156000
71.306000 24.948000 285.110000
71.630000 24.947000 285.098000
71.934000 24.939000 285.003000
72.246000 24.934000 284.946000
72.554000 24.927000 284.869000
72.868000 24.922000 284.819000
73.192000 24.921000 284.807000
100.429000 25.698000 293.686000
100.770000 25.699000 293.696000
101.164000 25.714000 293.861000
101.527000 25.720000 293.937000
101.913000 25.732000 294.075000
102.300000 25.745000 294.219000
102.659000 25.750000 294.279000
152.345000 24.764000 283.004000
152.532000 24.741000 282.749000
152.729000 24.721000 282.512000
152.918000 24.699000 282.262000
153.174000 24.688000 282.136000
153.390000 24.670000 281.937000
153.600000 24.652000 281.730000
153.807000 24.633000 281.517000
154.028000 24.617000 281.330000
154.233000 24.598000 281.114000
154.447000 24.581000 280.917000
154.666000 24.565000 280.729000
154.891000 24.549000 280.552000
155.132000 24.536000 280.405000
155.335000 24.517000 280.191000
155.585000 24.506000 280.062000
155.847000 24.497000 279.954000
156.070000 24.481000 279.778000
156.280000 24.464000 279.579000
156.532000 24.453000 279.457000
156.807000 24.446000 279.373000
157.082000 24.439000 279.293000
157.336000 24.428000 279.174000
157.578000 24.416000 279.035000
157.820000 24.404000 278.896000
158.089000 24.396000 278.807000
158.368000 24.390000 278.735000
29.040000 26.128000 294.734000
29.387000 26.136000 294.821000
29.721000 26.132000 294.777000
30.040000 26.115000 294.583000
30.398000 26.133000 294.782000
30.704000 26.105000 294.470000
31.059000 26.119000 294.625000
31.378000 26.103000 294.442000
31.701000 26.090000 294.303000
32.052000 26.102000 294.430000
32.384000 26.096000 294.371000
32.707000 26.085000 294.239000
33.039000 26.079000 294.182000
33.373000 26.077000 294.152000
33.695000 26.064000 294.009000
34.023000 26.057000 293.928000
34.348000 26.048000 293.822000
34.672000 26.038000 293.710000
34.991000 26.024000 293.559000
35.309000 26.010000 293.399000
35.625000 25.995000 293.228000
35.941000 25.980000 293.061000
36.262000 25.968000 292.929000
36.576000 25.953000 292.756000
36.892000 25.939000 292.593000
37.196000 25.917000 292.344000
37.500000 25.894000 292.092000
37.818000 25.883000 291.964000
38.167000 25.892000 292.066000
40.429000 25.837000 291.448000
40.774000 25.844000 291.523000
41.076000 25.823000 291.291000
41.449000 25.847000 291.564000
41.747000 25.824000 291.305000
42.036000 25.797000 290.992000
42.402000 25.816000 291.211000
42.715000 25.803000 291.065000
43.046000 25.801000 291.038000
43.382000 25.802000 291.055000
43.677000 25.779000 290.795000
44.048000 25.801000 291.038000
44.343000 25.778000 290.779000
44.634000 25.753000 290.500000
45.000000 25.772000 290.712000
45.304000 25.755000 290.518000
45.650000 25.762000 290.599000
45.997000 25.769000 290.683000
46.313000 25.759000 290.569000
46.638000 25.755000 290.518000
46.966000 25.752000 290.482000
47.280000 25.741000 290.361000
47.603000 25.735000 290.301000
47.931000 25.732000 290.267000
48.244000 25.722000 290.145000
48.547000 25.706000 289.966000
48.856000 25.693000 289.825000
49.239000 25.719000 290.120000
49.549000 25.707000 289.982000
49.870000 25.701000 289.912000
50.164000 25.681000 289.691000
50.453000 25.659000 289.440000
50.834000 25.683000 289.715000
51.172000 25.686000 289.747000
51.482000 25.675000 289.619000
51.800000 25.667000 289.534000
52.119000 25.661000 289.459000
52.429000 25.650000 289.340000
52.747000 25.643000 289.262000
53.076000 25.642000 289.244000
53.388000 25.632000 289.133000
53.693000 25.619000 288.986000
54.028000 25.620000 289.004000
62.896000 25.449000 287.068000
63.208000 25.442000 286.991000
63.523000 25.436000 286.925000
63.860000 25.439000 286.960000
64.167000 25.430000 286.860000
64.491000 25.428000 286.833000
64.788000 25.415000 286.690000
65.114000 25.414000 286.675000
65.430000 25.409000 286.618000
65.748000 25.405000 286.569000
66.051000 25.395000 286.457000
66.375000 25.393000 286.438000
66.690000 25.387000 286.374000
67.012000 25.385000 286.348000
67.324000 25.379000 286.276000
67.647000 25.376000 286.251000
67.965000 25.372000 286.206000
68.275000 25.366000 286.128000
68.592000 25.361000 286.082000
68.908000 25.357000 286.029000
69.223000 25.352000 285.974000
69.534000 25.345000 285.901000
69.855000 25.343000 285.873000
70.166000 25.336000 285.800000
70.492000 25.336000 285.792000
70.801000 25.329000 285.714000
71.122000 25.326000 285.688000
71.438000 25.322000 285.639000
71.765000 25.322000 285.635000
72.067000 25.313000 285.533000
72.377000 25.306000 285.462000
72.691000 25.302000 285.409000
73.010000 25.298000 285.371000
73.324000 25.294000 285.319000
73.641000 25.290000 285.278000
73.958000 25.286000 285.236000
74.270000 25.281000 285.178000
74.589000 25.279000 285.148000
74.901000 25.273000 285.086000
75.220000 25.270000 285.053000
75.546000 25.270000 285.051000
102.620000 26.078000 294.166000
103.013000 26.092000 294.325000
153.106000 25.054000 282.609000
153.328000 25.037000 282.421000
153.523000 25.016000 282.182000
153.759000 25.001000 282.021000
153.962000 24.982000 281.800000
154.183000 24.965000 281.613000
154.386000 24.946000 281.393000
154.600000 24.928000 281.195000
154.827000 24.913000 281.020000
155.059000 24.898000 280.856000
155.299000 24.885000 280.708000
155.482000 24.863000 280.456000
155.743000 24.853000 280.347000
156.001000 24.843000 280.232000
156.252000 24.832000 280.105000
156.459000 24.813000 279.900000
156.712000 24.803000 279.778000
156.950000 24.789000 279.629000
157.206000 24.779000 279.513000
157.465000 24.769000 279.403000
157.709000 24.757000 279.268000
157.997000 24.752000 279.209000
158.239000 24.740000 279.070000
158.525000 24.735000 279.010000
33.432000 26.461000 294.674000
33.760000 26.453000 294.583000
34.087000 26.445000 294.487000
34.419000 26.440000 294.434000
34.750000 26.434000 294.367000
35.077000 26.426000 294.276000
35.403000 26.417000 294.176000
35.729000 26.408000 294.080000
36.054000 26.399000 293.974000
36.361000 26.377000 293.731000
36.662000 26.351000 293.440000
36.968000 26.329000 293.196000
37.280000 26.312000 293.004000
37.610000 26.306000 292.948000
37.925000 26.292000 292.787000
38.231000 26.271000 292.553000
40.177000 26.226000 292.050000
40.508000 26.223000 292.017000
40.818000 26.206000 291.834000
41.194000 26.233000 292.124000
41.489000 26.207000 291.841000
41.834000 26.214000 291.913000
42.153000 26.203000 291.797000
42.482000 26.200000 291.758000
42.818000 26.200000 291.767000
43.142000 26.193000 291.687000
43.439000 26.171000 291.435000
43.806000 26.190000 291.652000
44.110000 26.172000 291.449000
44.445000 26.172000 291.447000
44.751000 26.155000 291.259000
45.069000 26.146000 291.158000
45.428000 26.160000 291.314000
45.748000 26.151000 291.221000
46.066000 26.142000 291.120000
46.412000 26.149000 291.189000
46.708000 26.127000 290.954000
47.073000 26.145000 291.146000
47.385000 26.132000 291.009000
47.699000 26.121000 290.882000
48.013000 26.110000 290.761000
48.326000 26.099000 290.638000
48.688000 26.114000 290.808000
49.014000 26.110000 290.759000
49.310000 26.090000 290.536000
49.634000 26.085000 290.482000
49.954000 26.078000 290.402000
50.277000 26.073000 290.343000
50.607000 26.070000 290.319000
50.936000 26.068000 290.296000
51.258000 26.063000 290.234000
51.579000 26.056000 290.164000
51.904000 26.052000 290.117000
52.222000 26.045000 290.035000
52.549000 26.042000 290.002000
52.866000 26.034000 289.912000
53.185000 26.027000 289.837000
53.501000 26.019000 289.747000
53.813000 26.009000 289.636000
54.138000 26.005000 289.593000
62.677000 25.824000 287.578000
63.000000 25.821000 287.547000
63.324000 25.819000 287.515000
63.648000 25.816000 287.489000
63.978000 25.816000 287.490000
64.296000 25.811000 287.435000
64.605000 25.803000 287.341000
64.908000 25.792000 287.223000
65.231000 25.790000 287.193000
65.546000 25.784000 287.127000
65.864000 25.779000 287.076000
66.177000 25.773000 287.002000
66.503000 25.771000 286.986000
66.821000 25.767000 286.941000
67.133000 25.760000 286.865000
67.449000 25.755000 286.806000
67.769000 25.751000 286.767000
68.082000 25.745000 286.698000
68.396000 25.740000 286.637000
68.716000 25.736000 286.596000
69.032000 25.731000 286.544000
69.352000 25.728000 286.506000
69.661000 25.721000 286.423000
69.983000 25.718000 286.394000
70.289000 25.710000 286.304000
70.616000 25.709000 286.295000
70.928000 25.703000 286.228000
71.249000 25.700000 286.196000
71.563000 25.695000 286.139000
71.890000 25.694000 286.132000
72.187000 25.683000 286.008000
72.515000 25.683000 286.004000
72.825000 25.676000 285.932000
73.146000 25.674000 285.905000
73.452000 25.666000 285.817000
73.772000 25.663000 285.784000
74.086000 25.658000 285.731000
74.408000 25.656000 285.707000
74.722000 25.652000 285.656000
75.032000 25.645000 285.587000
75.343000 25.640000 285.522000
75.659000 25.636000 285.476000
75.985000 25.635000 285.469000
102.555000 26.399000 293.981000
102.979000 26.421000 294.226000
103.317000 26.421000 294.228000
103.707000 26.435000 294.374000
104.108000 26.451000 294.554000
104.494000 26.463000 294.689000
104.855000 26.468000 294.751000
105.253000 26.484000 294.920000
153.917000 25.351000 282.311000
154.106000 25.329000 282.063000
154.320000 25.311000 281.864000
154.522000 25.291000 281.641000
154.758000 25.277000 281.482000
154.996000 25.263000 281.328000
155.224000 25.248000 281.155000
155.453000 25.232000 280.985000
155.664000 25.214000 280.784000
155.929000 25.205000 280.681000
156.177000 25.193000 280.547000
156.448000 25.185000 280.457000
156.627000 25.162000 280.200000
156.885000 25.152000 280.087000
157.118000 25.137000 279.928000
157.368000 25.126000 279.801000
157.624000 25.115000 279.685000
157.869000 25.103000 279.550000
158.152000 25.097000 279.484000
158.397000 25.085000 279.349000
158.680000 25.079000 279.282000
33.494000 26.849000 295.214000
33.814000 26.834000 295.049000
34.146000 26.828000 294.989000
34.479000 26.824000 294.941000
34.808000 26.817000 294.863000
35.134000 26.807000 294.756000
35.470000 26.806000 294.739000
35.797000 26.797000 294.645000
36.129000 26.792000 294.593000
36.451000 26.780000 294.460000
36.777000 26.771000 294.359000
37.109000 26.767000 294.312000
37.434000 26.758000 294.214000
37.742000 26.737000 293.978000
38.054000 26.719000 293.783000
38.377000 26.709000 293.670000
38.697000 26.697000 293.543000
39.019000 26.686000 293.426000
39.339000 26.675000 293.306000
39.655000 26.661000 293.151000
39.961000 26.640000 292.921000
40.268000 26.621000 292.710000
40.569000 26.598000 292.455000
40.941000 26.622000 292.716000
41.236000 26.595000 292.424000
41.595000 26.610000 292.587000
41.904000 26.593000 292.398000
42.223000 26.582000 292.281000
42.574000 26.592000 292.392000
42.884000 26.576000 292.211000
43.180000 26.552000 291.948000
43.562000 26.581000 292.263000
43.883000 26.571000 292.161000
44.202000 26.562000 292.055000
44.505000 26.543000 291.845000
44.822000 26.531000 291.722000
45.161000 26.534000 291.749000
45.485000 26.527000 291.677000
45.786000 26.508000 291.466000
46.152000 26.526000 291.663000
46.446000 26.503000 291.407000
46.828000 26.530000 291.703000
47.144000 26.519000 291.584000
47.457000 26.506000 291.447000
47.767000 26.493000 291.300000
48.077000 26.480000 291.152000
48.404000 26.475000 291.104000
48.765000 26.490000 291.266000
49.075000 26.477000 291.122000
49.403000 26.473000 291.084000
49.736000 26.473000 291.077000
50.058000 26.466000 291.006000
50.380000 26.460000 290.937000
50.702000 26.454000 290.868000
51.024000 26.447000 290.798000
51.350000 26.443000 290.753000
51.675000 26.439000 290.701000
51.998000 26.433000 290.646000
52.327000 26.431000 290.614000
52.646000 26.423000 290.533000
52.968000 26.417000 290.470000
53.286000 26.410000 290.385000
53.609000 26.405000 290.330000
