125.032000 6.565000 282.967000
125.328000 6.563000 282.903000
125.633000 6.562000 282.857000
125.939000 6.561000 282.815000
126.199000 6.558000 282.669000
126.531000 6.558000 282.687000
126.785000 6.555000 282.531000
127.125000 6.555000 282.565000
127.410000 6.553000 282.476000
127.711000 6.552000 282.426000
127.997000 6.550000 282.340000
128.272000 6.548000 282.231000
128.592000 6.547000 282.223000
128.857000 6.544000 282.094000
129.189000 6.545000 282.112000
129.447000 6.542000 281.967000
129.765000 6.541000 281.956000
130.077000 6.541000 281.929000
130.367000 6.539000 281.857000
61.506000 7.213000 296.252000
61.837000 7.212000 296.208000
62.140000 7.208000 296.033000
62.517000 7.212000 296.206000
64.416000 7.196000 295.556000
64.748000 7.195000 295.523000
65.101000 7.197000 295.585000
65.409000 7.193000 295.444000
65.697000 7.188000 295.212000
67.663000 7.181000 294.918000
68.009000 7.181000 294.948000
68.256000 7.172000 294.554000
68.628000 7.175000 294.698000
68.909000 7.169000 294.454000
69.276000 7.172000 294.575000
69.550000 7.166000 294.304000
69.924000 7.169000 294.458000
70.199000 7.163000 294.191000
70.533000 7.163000 294.176000
70.813000 7.157000 293.935000
71.201000 7.162000 294.144000
71.513000 7.159000 294.040000
71.820000 7.156000 293.914000
72.110000 7.152000 293.721000
72.430000 7.150000 293.650000
72.781000 7.151000 293.706000
73.082000 7.148000 293.560000
73.421000 7.148000 293.568000
73.711000 7.143000 293.380000
74.069000 7.145000 293.464000
74.328000 7.138000 293.156000
74.707000 7.142000 293.323000
74.959000 7.134000 292.993000
75.362000 7.140000 293.248000
75.587000 7.130000 292.817000
76.016000 7.138000 293.177000
112.887000 6.942000 285.118000
113.156000 6.938000 284.972000
113.534000 6.942000 285.100000
113.772000 6.936000 284.877000
114.133000 6.938000 284.959000
114.368000 6.933000 284.732000
114.704000 6.933000 284.753000
114.998000 6.931000 284.671000
115.299000 6.930000 284.609000
115.625000 6.930000 284.606000
115.899000 6.926000 284.477000
116.206000 6.925000 284.428000
116.491000 6.923000 284.327000
116.805000 6.922000 284.297000
117.097000 6.920000 284.212000
117.415000 6.920000 284.194000
117.710000 6.918000 284.117000
118.032000 6.917000 284.106000
118.299000 6.914000 283.965000
118.628000 6.914000 283.971000
118.896000 6.911000 283.834000
119.214000 6.910000 283.814000
119.513000 6.909000 283.750000
119.822000 6.908000 283.710000
120.126000 6.907000 283.659000
120.384000 6.903000 283.500000
120.715000 6.903000 283.513000
120.984000 6.900000 283.380000
121.324000 6.901000 283.414000
121.600000 6.898000 283.299000
121.898000 6.896000 283.236000
122.198000 6.895000 283.176000
122.475000 6.892000 283.065000
122.791000 6.892000 283.044000
123.090000 6.890000 282.984000
123.377000 6.888000 282.897000
123.688000 6.887000 282.866000
123.978000 6.885000 282.786000
124.269000 6.883000 282.709000
124.560000 6.882000 282.634000
124.864000 6.880000 282.588000
125.165000 6.879000 282.534000
125.449000 6.877000 282.444000
125.768000 6.877000 282.432000
126.038000 6.874000 282.309000
126.368000 6.874000 282.323000
126.639000 6.871000 282.203000
126.920000 6.869000 282.108000
127.246000 6.869000 282.113000
127.533000 6.867000 282.031000
127.839000 6.866000 281.993000
128.110000 6.863000 281.876000
128.402000 6.861000 281.807000
128.720000 6.861000 281.794000
128.978000 6.858000 281.650000
129.319000 6.859000 281.690000
129.576000 6.855000 281.544000
129.903000 6.855000 281.554000
130.194000 6.854000 281.483000
130.470000 6.851000 281.382000
61.365000 7.536000 295.573000
61.724000 7.538000 295.667000
62.072000 7.539000 295.708000
62.390000 7.537000 295.604000
64.341000 7.527000 295.212000
64.652000 7.524000 295.083000
64.974000 7.522000 295.008000
65.306000 7.521000 294.978000
65.612000 7.517000 294.830000
65.964000 7.519000 294.892000
67.544000 7.506000 294.396000
67.924000 7.511000 294.581000
68.169000 7.500000 294.179000
68.554000 7.506000 294.380000
68.834000 7.499000 294.134000
69.184000 7.501000 294.187000
69.458000 7.494000 293.917000
69.834000 7.498000 294.079000
70.109000 7.491000 293.813000
70.454000 7.492000 293.846000
70.736000 7.486000 293.616000
71.130000 7.492000 293.852000
71.443000 7.490000 293.751000
71.740000 7.485000 293.585000
72.035000 7.481000 293.413000
72.353000 7.479000 293.337000
72.704000 7.480000 293.395000
73.008000 7.477000 293.264000
73.340000 7.477000 293.243000
73.649000 7.474000 293.132000
73.995000 7.475000 293.170000
74.258000 7.467000 292.878000
74.636000 7.471000 293.042000
74.890000 7.463000 292.722000
75.283000 7.469000 292.944000
75.504000 7.458000 292.495000
75.946000 7.468000 292.904000
113.971000 7.255000 284.556000
114.233000 7.251000 284.395000
114.559000 7.251000 284.394000
114.843000 7.248000 284.287000
115.168000 7.248000 284.285000
115.479000 7.247000 284.247000
115.782000 7.246000 284.189000
116.041000 7.242000 284.025000
116.347000 7.240000 283.976000
116.643000 7.238000 283.903000
116.930000 7.236000 283.807000
117.260000 7.236000 283.818000
117.549000 7.234000 283.728000
117.877000 7.234000 283.733000
118.136000 7.230000 283.572000
118.470000 7.231000 283.593000
118.746000 7.228000 283.474000
119.051000 7.226000 283.425000
119.357000 7.225000 283.379000
119.660000 7.224000 283.328000
119.948000 7.222000 283.238000
120.248000 7.220000 283.179000
120.521000 7.217000 283.058000
120.854000 7.217000 283.075000
121.128000 7.214000 282.956000
121.441000 7.214000 282.927000
121.736000 7.212000 282.858000
121.986000 7.207000 282.686000
122.348000 7.210000 282.772000
122.595000 7.205000 282.592000
122.935000 7.206000 282.627000
123.211000 7.203000 282.517000
123.527000 7.203000 282.498000
123.809000 7.200000 282.401000
124.105000 7.199000 282.337000
124.410000 7.197000 282.293000
124.694000 7.195000 282.203000
125.001000 7.194000 282.165000
125.292000 7.192000 282.089000
125.597000 7.191000 282.048000
125.883000 7.189000 281.962000
126.204000 7.189000 281.957000
126.471000 7.186000 281.831000
126.784000 7.185000 281.806000
127.041000 7.181000 281.659000
127.368000 7.181000 281.666000
127.642000 7.179000 281.558000
127.957000 7.178000 281.539000
128.236000 7.176000 281.442000
128.538000 7.175000 281.395000
128.850000 7.174000 281.371000
129.103000 7.170000 281.219000
129.439000 7.171000 281.247000
129.686000 7.167000 281.083000
130.027000 7.168000 281.122000
130.298000 7.165000 281.011000
54.830000 7.863000 295.110000
55.206000 7.868000 295.309000
55.491000 7.861000 295.020000
55.863000 7.865000 295.193000
56.169000 7.861000 295.024000
56.506000 7.860000 295.011000
56.850000 7.861000 295.040000
57.145000 7.855000 294.816000
57.504000 7.858000 294.918000
57.817000 7.854000 294.788000
61.316000 7.869000 295.339000
61.613000 7.864000 295.133000
61.966000 7.866000 295.202000
62.310000 7.866000 295.226000
62.598000 7.860000 294.987000
62.931000 7.859000 294.959000
63.251000 7.857000 294.874000
63.578000 7.855000 294.820000
63.899000 7.853000 294.737000
64.223000 7.851000 294.669000
64.545000 7.849000 294.599000
64.851000 7.845000 294.450000
65.186000 7.845000 294.434000
65.489000 7.841000 294.277000
65.851000 7.844000 294.387000
66.130000 7.837000 294.122000
66.511000 7.842000 294.314000
66.772000 7.833000 293.978000
67.161000 7.839000 294.199000
67.412000 7.829000 293.823000
67.798000 7.834000 294.034000
68.027000 7.822000 293.564000
68.471000 7.834000 294.024000
68.710000 7.823000 293.602000
69.074000 7.826000 293.717000
69.336000 7.817000 293.398000
69.713000 7.822000 293.568000
69.981000 7.814000 293.279000
70.356000 7.818000 293.437000
70.634000 7.812000 293.194000
70.987000 7.814000 293.259000
71.284000 7.809000 293.097000
71.606000 7.808000 293.038000
71.919000 7.805000 292.941000
72.224000 7.802000 292.814000
72.557000 7.802000 292.803000
72.861000 7.798000 292.670000
73.223000 7.801000 292.776000
73.497000 7.794000 292.530000
73.872000 7.798000 292.684000
74.122000 7.789000 292.343000
74.516000 7.795000 292.573000
74.747000 7.785000 292.162000
115.621000 7.562000 283.793000
115.930000 7.560000 283.753000
116.177000 7.555000 283.561000
116.521000 7.557000 283.605000
116.770000 7.552000 283.420000
117.109000 7.552000 283.452000
117.384000 7.549000 283.330000
117.735000 7.551000 283.391000
117.992000 7.546000 283.228000
118.320000 7.547000 283.234000
118.595000 7.543000 283.114000
118.917000 7.543000 283.106000
119.194000 7.540000 282.994000
119.508000 7.540000 282.967000
119.789000 7.537000 282.862000
120.079000 7.535000 282.781000
120.390000 7.534000 282.749000
120.656000 7.530000 282.612000
120.992000 7.531000 282.638000
121.245000 7.526000 282.471000
121.572000 7.526000 282.478000
121.843000 7.523000 282.354000
122.169000 7.523000 282.358000
122.460000 7.521000 282.281000
122.744000 7.519000 282.189000
123.064000 7.519000 282.181000
123.351000 7.516000 282.094000
123.654000 7.515000 282.048000
123.946000 7.513000 281.975000
124.240000 7.511000 281.907000
124.522000 7.509000 281.812000
124.828000 7.508000 281.775000
125.130000 7.506000 281.724000
125.437000 7.505000 281.689000
125.708000 7.502000 281.570000
126.043000 7.503000 281.597000
126.300000 7.499000 281.448000
126.631000 7.500000 281.466000
126.901000 7.496000 281.349000
127.177000 7.494000 281.243000
127.500000 7.494000 281.244000
127.756000 7.490000 281.098000
128.126000 7.492000 281.200000
128.354000 7.487000 280.993000
128.760000 7.492000 281.175000
128.969000 7.485000 280.927000
129.186000 7.479000 280.698000
129.565000 7.482000 280.820000
129.800000 7.477000 280.630000
130.173000 7.480000 280.740000
130.407000 7.475000 280.551000
53.709000 8.238000 296.400000
54.040000 8.236000 296.351000
54.337000 8.230000 296.113000
54.717000 8.236000 296.330000
55.001000 8.227000 296.029000
55.342000 8.228000 296.035000
55.673000 8.226000 295.989000
55.979000 8.221000 295.807000
56.331000 8.223000 295.875000
56.647000 8.220000 295.749000
56.956000 8.215000 295.587000
57.318000 8.218000 295.704000
57.614000 8.212000 295.482000
59.579000 8.203000 295.134000
59.904000 8.201000 295.065000
60.226000 8.198000 294.983000
60.601000 8.203000 295.158000
60.910000 8.199000 295.015000
61.213000 8.194000 294.843000
61.550000 8.194000 294.835000
61.829000 8.186000 294.549000
62.187000 8.189000 294.645000
62.529000 8.189000 294.662000
62.847000 8.187000 294.567000
63.163000 8.184000 294.462000
63.481000 8.181000 294.370000
63.800000 8.179000 294.283000
64.135000 8.179000 294.270000
64.456000 8.176000 294.191000
64.762000 8.172000 294.048000
65.093000 8.171000 294.015000
65.398000 8.167000 293.868000
65.773000 8.172000 294.038000
66.042000 8.164000 293.731000
66.438000 8.171000 293.993000
66.694000 8.161000 293.635000
67.076000 8.166000 293.827000
67.327000 8.156000 293.451000
67.716000 8.162000 293.679000
67.940000 8.149000 293.189000
68.393000 8.162000 293.689000
68.630000 8.151000 293.262000
69.002000 8.155000 293.411000
69.265000 8.146000 293.096000
69.637000 8.150000 293.248000
69.902000 8.142000 292.945000
70.270000 8.145000 293.077000
70.553000 8.139000 292.858000
70.901000 8.141000 292.904000
71.195000 8.136000 292.731000
71.532000 8.136000 292.733000
71.851000 8.134000 292.667000
72.154000 8.130000 292.531000
72.486000 8.130000 292.513000
72.778000 8.125000 292.338000
73.156000 8.130000 292.510000
73.424000 8.122000 292.239000
73.794000 8.126000 292.373000
74.046000 8.117000 292.044000
74.443000 8.123000 292.285000
74.671000 8.112000 291.866000
116.050000 7.872000 283.251000
116.347000 7.870000 283.182000
116.644000 7.868000 283.112000
116.953000 7.867000 283.075000
117.224000 7.864000 282.943000
117.572000 7.865000 282.999000
117.838000 7.861000 282.858000
118.171000 7.862000 282.878000
118.440000 7.858000 282.743000
118.767000 7.858000 282.750000
119.047000 7.855000 282.642000
119.342000 7.854000 282.574000
119.637000 7.852000 282.505000
119.931000 7.850000 282.432000
120.249000 7.849000 282.418000
120.525000 7.846000 282.304000
120.814000 7.844000 282.222000
121.115000 7.842000 282.169000
121.425000 7.841000 282.135000
121.688000 7.837000 281.994000
122.024000 7.838000 282.024000
122.307000 7.836000 281.928000
122.632000 7.836000 281.933000
122.912000 7.833000 281.832000
123.220000 7.832000 281.796000
123.506000 7.829000 281.710000
123.817000 7.829000 281.682000
124.098000 7.826000 281.585000
124.375000 7.823000 281.481000
124.677000 7.822000 281.434000
124.967000 7.820000 281.359000
125.290000 7.820000 281.358000
125.560000 7.816000 281.240000
125.875000 7.816000 281.222000
126.152000 7.813000 281.118000
126.449000 7.811000 281.062000
126.757000 7.811000 281.029000
127.060000 7.809000 280.985000
127.348000 7.807000 280.908000
127.652000 7.806000 280.868000
127.894000 7.801000 280.691000
128.269000 7.804000 280.806000
128.499000 7.799000 280.606000
128.895000 7.803000 280.766000
129.099000 7.796000 280.508000
129.282000 7.788000 280.208000
129.720000 7.795000 280.458000
129.919000 7.787000 280.194000
130.350000 7.794000 280.428000
130.538000 7.786000 280.140000
130.727000 7.778000 279.857000
50.684000 8.585000 296.625000
50.982000 8.577000 296.377000
51.329000 8.579000 296.416000
51.658000 8.577000 296.350000
51.958000 8.570000 296.122000
53.617000 8.563000 295.894000
53.955000 8.563000 295.884000
54.287000 8.562000 295.841000
54.577000 8.554000 295.575000
54.959000 8.561000 295.800000
55.243000 8.552000 295.506000
55.623000 8.558000 295.719000
55.909000 8.550000 295.437000
56.231000 8.548000 295.346000
56.560000 8.546000 295.293000
56.896000 8.546000 295.276000
57.188000 8.539000 295.036000
57.571000 8.545000 295.264000
59.165000 8.531000 294.760000
59.507000 8.531000 294.776000
59.788000 8.523000 294.491000
60.171000 8.529000 294.712000
60.443000 8.520000 294.387000
60.855000 8.530000 294.747000
61.130000 8.521000 294.439000
61.462000 8.521000 294.411000
61.757000 8.515000 294.207000
62.059000 8.510000 294.039000
62.420000 8.513000 294.148000
62.773000 8.515000 294.217000
63.066000 8.509000 294.010000
63.381000 8.506000 293.905000
63.694000 8.503000 293.794000
64.028000 8.502000 293.776000
64.358000 8.501000 293.743000
64.660000 8.497000 293.583000
65.010000 8.498000 293.642000
65.302000 8.492000 293.437000
65.666000 8.496000 293.560000
65.931000 8.487000 293.240000
66.311000 8.492000 293.429000
66.561000 8.481000 293.046000
66.959000 8.489000 293.317000
67.197000 8.476000 292.884000
68.498000 8.471000 292.697000
68.884000 8.477000 292.911000
69.131000 8.466000 292.530000
69.518000 8.472000 292.747000
69.779000 8.463000 292.430000
70.159000 8.469000 292.615000
70.445000 8.463000 292.409000
70.789000 8.464000 292.441000
71.079000 8.458000 292.252000
71.412000 8.458000 292.242000
71.733000 8.456000 292.183000
72.047000 8.454000 292.095000
72.392000 8.455000 292.136000
72.675000 8.449000 291.927000
73.022000 8.450000 291.971000
73.289000 8.442000 291.699000
73.668000 8.447000 291.875000
73.912000 8.437000 291.516000
74.302000 8.443000 291.732000
74.529000 8.431000 291.310000
117.432000 8.181000 282.663000
117.677000 8.175000 282.472000
118.035000 8.177000 282.552000
118.293000 8.173000 282.393000
118.609000 8.172000 282.373000
118.900000 8.170000 282.294000
119.196000 8.168000 282.229000
119.478000 8.165000 282.129000
119.796000 8.165000 282.115000
120.086000 8.162000 282.035000
120.395000 8.161000 282.000000
120.685000 8.159000 281.920000
120.980000 8.157000 281.853000
121.322000 8.158000 281.897000
121.565000 8.153000 281.710000
121.919000 8.155000 281.781000
122.170000 8.150000 281.612000
122.535000 8.153000 281.709000
122.793000 8.149000 281.559000
123.093000 8.147000 281.505000
123.387000 8.145000 281.439000
123.690000 8.144000 281.392000
123.988000 8.142000 281.335000
124.271000 8.140000 281.246000
124.575000 8.138000 281.202000
124.876000 8.137000 281.153000
125.203000 8.137000 281.164000
125.481000 8.134000 281.062000
125.791000 8.133000 281.033000
126.077000 8.131000 280.951000
126.378000 8.130000 280.904000
126.666000 8.127000 280.827000
126.990000 8.127000 280.829000
127.265000 8.125000 280.727000
127.589000 8.125000 280.730000
127.852000 8.121000 280.598000
128.209000 8.123000 280.675000
128.470000 8.119000 280.541000
128.811000 8.120000 280.583000
129.086000 8.117000 280.479000
129.300000 8.111000 280.245000
129.707000 8.116000 280.430000
129.941000 8.110000 280.240000
130.329000 8.115000 280.384000
130.555000 8.109000 280.176000
130.829000 8.106000 280.075000
50.626000 8.915000 296.284000
50.940000 8.910000 296.132000
51.256000 8.906000 295.993000
51.601000 8.907000 296.021000
53.875000 8.890000 295.444000
54.231000 8.893000 295.537000
54.537000 8.887000 295.355000
54.834000 8.880000 295.128000
55.220000 8.888000 295.382000
55.509000 8.880000 295.116000
55.859000 8.882000 295.174000
56.166000 8.877000 295.007000
56.475000 8.872000 294.851000
56.852000 8.878000 295.047000
57.157000 8.873000 294.876000
57.502000 8.874000 294.911000
59.079000 8.856000 294.331000
59.455000 8.862000 294.519000
59.732000 8.853000 294.215000
60.108000 8.858000 294.406000
60.397000 8.851000 294.162000
60.720000 8.849000 294.093000
61.066000 8.850000 294.134000
61.382000 8.847000 294.030000
61.688000 8.843000 293.878000
62.017000 8.841000 293.839000
62.324000 8.837000 293.695000
62.687000 8.841000 293.818000
62.998000 8.837000 293.690000
63.306000 8.833000 293.559000
63.626000 8.831000 293.478000
63.948000 8.828000 293.408000
64.281000 8.828000 293.392000
64.585000 8.823000 293.243000
64.934000 8.825000 293.299000
65.219000 8.818000 293.067000
65.590000 8.823000 293.217000
65.855000 8.813000 292.900000
66.226000 8.818000 293.056000
66.472000 8.806000 292.656000
66.884000 8.816000 292.988000
68.415000 8.796000 292.341000
68.801000 8.803000 292.556000
69.048000 8.791000 292.178000
69.440000 8.799000 292.418000
69.704000 8.790000 292.117000
70.085000 8.795000 292.308000
70.375000 8.790000 292.116000
70.709000 8.789000 292.111000
71.006000 8.785000 291.956000
71.334000 8.784000 291.925000
71.655000 8.782000 291.864000
71.974000 8.780000 291.799000
72.323000 8.782000 291.857000
72.602000 8.775000 291.633000
72.943000 8.776000 291.658000
73.207000 8.767000 291.372000
73.597000 8.774000 291.593000
73.834000 8.762000 291.206000
74.224000 8.769000 291.427000
74.454000 8.757000 291.017000
119.671000 8.480000 281.820000
119.994000 8.480000 281.819000
120.233000 8.474000 281.620000
120.615000 8.478000 281.758000
120.872000 8.473000 281.602000
121.263000 8.478000 281.761000
121.472000 8.470000 281.495000
121.886000 8.476000 281.704000
122.099000 8.469000 281.449000
122.478000 8.473000 281.579000
122.725000 8.467000 281.402000
122.960000 8.461000 281.202000
123.334000 8.465000 281.317000
123.590000 8.460000 281.165000
123.924000 8.461000 281.191000
124.203000 8.458000 281.091000
124.527000 8.458000 281.094000
124.844000 8.458000 281.081000
125.178000 8.458000 281.106000
125.456000 8.455000 281.006000
125.768000 8.455000 280.982000
126.058000 8.452000 280.910000
126.371000 8.452000 280.888000
126.657000 8.449000 280.808000
126.973000 8.449000 280.794000
127.252000 8.446000 280.696000
127.594000 8.447000 280.739000
127.863000 8.444000 280.624000
128.224000 8.446000 280.708000
128.497000 8.443000 280.601000
128.842000 8.445000 280.649000
129.121000 8.442000 280.556000
129.414000 8.440000 280.492000
129.752000 8.441000 280.528000
130.027000 8.438000 280.425000
130.370000 8.439000 280.471000
130.571000 8.431000 280.210000
130.919000 8.433000 280.267000
50.203000 9.240000 295.798000
50.512000 9.234000 295.620000
50.845000 9.233000 295.580000
51.178000 9.232000 295.546000
51.491000 9.227000 295.390000
54.117000 9.212000 294.917000
54.458000 9.213000 294.930000
54.779000 9.210000 294.835000
55.066000 9.201000 294.558000
55.461000 9.211000 294.861000
55.764000 9.205000 294.670000
56.102000 9.205000 294.670000
56.385000 9.196000 294.382000
56.721000 9.195000 294.371000
57.076000 9.198000 294.460000
57.410000 9.197000 294.435000
57.704000 9.190000 294.211000
58.069000 9.195000 294.349000
58.352000 9.186000 294.074000
58.707000 9.189000 294.157000
58.986000 9.180000 293.869000
59.365000 9.186000 294.075000
59.639000 9.176000 293.761000
59.995000 9.179000 293.852000
60.277000 9.171000 293.582000
60.642000 9.175000 293.714000
60.934000 9.168000 293.498000
61.293000 9.171000 293.602000
61.586000 9.165000 293.394000
61.930000 9.166000 293.425000
62.234000 9.161000 293.272000
62.570000 9.161000 293.269000
62.874000 9.156000 293.115000
63.209000 9.156000 293.108000
63.532000 9.154000 293.044000
63.849000 9.151000 292.953000
64.183000 9.151000 292.945000
64.490000 9.147000 292.813000
64.834000 9.148000 292.844000
65.111000 9.140000 292.582000
65.477000 9.144000 292.715000
65.743000 9.134000 292.404000
66.130000 9.141000 292.629000
66.376000 9.129000 292.233000
66.785000 9.139000 292.555000
68.307000 9.118000 291.880000
68.711000 9.127000 292.172000
68.960000 9.115000 291.808000
69.332000 9.120000 291.962000
69.590000 9.110000 291.640000
69.959000 9.115000 291.781000
70.241000 9.108000 291.562000
70.584000 9.109000 291.596000
70.882000 9.104000 291.444000
71.212000 9.103000 291.424000
71.535000 9.102000 291.379000
71.842000 9.098000 291.264000
72.177000 9.099000 291.270000
72.463000 9.092000 291.073000
72.821000 9.095000 291.167000
73.088000 9.087000 290.900000
73.470000 9.093000 291.092000
73.709000 9.081000 290.715000
74.095000 9.088000 290.919000
74.314000 9.074000 290.472000
119.658000 8.802000 281.790000
120.015000 8.805000 281.868000
120.240000 8.798000 281.638000
120.632000 8.803000 281.798000
120.875000 8.797000 281.609000
121.272000 8.802000 281.781000
121.482000 8.794000 281.517000
121.885000 8.800000 281.702000
122.103000 8.792000 281.458000
122.508000 8.798000 281.646000
122.734000 8.791000 281.424000
123.035000 8.789000 281.372000
123.361000 8.790000 281.379000
123.630000 8.786000 281.257000
123.970000 8.787000 281.295000
124.244000 8.784000 281.184000
124.580000 8.784000 281.213000
124.895000 8.784000 281.196000
125.217000 8.784000 281.193000
125.490000 8.780000 281.082000
125.811000 8.780000 281.079000
126.107000 8.778000 281.019000
50.102000 9.560000 295.203000
50.478000 9.567000 295.417000
50.776000 9.560000 295.177000
51.129000 9.562000 295.264000
51.458000 9.560000 295.201000
54.378000 9.537000 294.493000
54.743000 9.542000 294.642000
55.029000 9.533000 294.362000
55.420000 9.542000 294.644000
55.710000 9.534000 294.386000
56.011000 9.528000 294.192000
56.329000 9.524000 294.087000
56.645000 9.521000 293.978000
56.980000 9.520000 293.961000
57.344000 9.525000 294.100000
57.629000 9.516000 293.831000
57.992000 9.520000 293.960000
60.182000 9.493000 293.117000
60.566000 9.500000 293.347000
60.859000 9.493000 293.136000
61.210000 9.496000 293.206000
61.508000 9.490000 293.019000
61.851000 9.491000 293.050000
62.159000 9.486000 292.919000
62.490000 9.486000 292.891000
62.782000 9.479000 292.684000
63.118000 9.479000 292.686000
63.455000 9.479000 292.688000
63.767000 9.475000 292.577000
64.112000 9.477000 292.622000
64.416000 9.472000 292.477000
64.764000 9.474000 292.529000
65.039000 9.465000 292.255000
65.392000 9.468000 292.336000
65.664000 9.458000 292.049000
66.054000 9.466000 292.292000
66.301000 9.454000 291.905000
66.713000 9.464000 292.240000
68.232000 9.442000 291.560000
68.640000 9.453000 291.872000
68.892000 9.441000 291.519000
69.248000 9.444000 291.611000
69.509000 9.434000 291.301000
69.872000 9.438000 291.418000
70.152000 9.431000 291.194000
70.500000 9.432000 291.247000
70.804000 9.428000 291.122000
71.129000 9.427000 291.087000
71.462000 9.427000 291.079000
71.757000 9.422000 290.922000
72.085000 9.421000 290.897000
72.374000 9.415000 290.716000
72.737000 9.419000 290.834000
119.750000 9.133000 282.006000
120.085000 9.134000 282.034000
120.397000 9.133000 282.005000
120.691000 9.131000 281.936000
120.972000 9.127000 281.836000
121.319000 9.129000 281.891000
121.582000 9.125000 281.749000
121.921000 9.126000 281.785000
122.158000 9.119000 281.585000
122.550000 9.125000 281.744000
122.798000 9.119000 281.570000
123.147000 9.121000 281.630000
123.421000 9.117000 281.515000
123.727000 9.116000 281.477000
50.334000 9.878000 294.578000
50.707000 9.885000 294.779000
51.015000 9.879000 294.602000
51.363000 9.881000 294.659000
54.282000 9.858000 293.974000
54.604000 9.855000 293.890000
54.935000 9.854000 293.859000
55.265000 9.853000 293.816000
55.552000 9.844000 293.549000
55.931000 9.851000 293.771000
56.199000 9.839000 293.412000
56.590000 9.849000 293.688000
56.874000 9.839000 293.416000
57.215000 9.840000 293.436000
57.520000 9.835000 293.275000
57.861000 9.835000 293.297000
60.101000 9.816000 292.721000
60.450000 9.818000 292.788000
60.730000 9.809000 292.516000
61.130000 9.820000 292.822000
61.408000 9.810000 292.544000
61.766000 9.814000 292.649000
62.062000 9.807000 292.461000
62.399000 9.808000 292.465000
62.698000 9.802000 292.295000
63.023000 9.800000 292.247000
63.349000 9.799000 292.203000
63.665000 9.796000 292.111000
64.003000 9.796000 292.121000
64.306000 9.791000 291.976000
64.666000 9.795000 292.087000
64.946000 9.787000 291.840000
65.297000 9.789000 291.910000
65.553000 9.777000 291.556000
65.941000 9.785000 291.795000
66.188000 9.772000 291.406000
66.605000 9.784000 291.767000
68.111000 9.760000 291.045000
68.506000 9.769000 291.303000
68.751000 9.756000 290.925000
69.129000 9.762000 291.107000
69.396000 9.753000 290.825000
69.759000 9.757000 290.946000
70.041000 9.749000 290.729000
70.379000 9.750000 290.750000
70.678000 9.745000 290.606000
71.010000 9.745000 290.597000
71.336000 9.744000 290.567000
71.641000 9.740000 290.452000
71.976000 9.740000 290.457000
72.263000 9.734000 290.268000
119.875000 9.467000 282.302000
120.163000 9.464000 282.216000
120.484000 9.464000 282.208000
120.741000 9.458000 282.052000
121.106000 9.462000 282.148000
121.383000 9.458000 282.039000
121.733000 9.460000 282.099000
121.988000 9.455000 281.939000
122.314000 9.455000 281.945000
122.621000 9.454000 281.907000
122.894000 9.450000 281.791000
123.231000 9.451000 281.820000
123.492000 9.446000 281.678000
50.318000 10.213000 294.482000
50.683000 10.219000 294.637000
50.990000 10.212000 294.456000
51.299000 10.207000 294.292000
51.646000 10.209000 294.344000
51.962000 10.204000 294.219000
52.287000 10.202000 294.146000
52.635000 10.204000 294.201000
54.250000 10.190000 293.803000
54.572000 10.187000 293.717000
54.883000 10.182000 293.578000
55.241000 10.186000 293.692000
55.525000 10.176000 293.409000
55.906000 10.184000 293.639000
56.177000 10.172000 293.294000
56.543000 10.177000 293.445000
56.842000 10.171000 293.251000
57.172000 10.169000 293.214000
57.475000 10.163000 293.042000
57.820000 10.165000 293.088000
60.066000 10.146000 292.553000
60.413000 10.148000 292.608000
60.689000 10.138000 292.316000
61.081000 10.148000 292.587000
61.351000 10.137000 292.272000
61.691000 10.137000 292.293000
61.988000 10.131000 292.110000
62.319000 10.130000 292.091000
62.635000 10.127000 292.000000
62.949000 10.124000 291.900000
63.264000 10.121000 291.807000
63.581000 10.118000 291.727000
63.919000 10.118000 291.741000
64.220000 10.113000 291.587000
64.594000 10.119000 291.760000
64.866000 10.109000 291.479000
65.225000 10.113000 291.589000
65.480000 10.101000 291.231000
65.856000 10.107000 291.415000
66.104000 10.094000 291.034000
66.520000 10.106000 291.395000
68.031000 10.082000 290.701000
68.415000 10.090000 290.914000
68.660000 10.077000 290.540000
69.039000 10.083000 290.731000
69.310000 10.074000 290.467000
69.671000 10.078000 290.578000
69.959000 10.071000 290.390000
70.293000 10.072000 290.395000
70.588000 10.066000 290.237000
70.919000 10.066000 290.224000
71.248000 10.065000 290.206000
71.552000 10.061000 290.091000
71.904000 10.064000 290.167000
72.177000 10.055000 289.925000
117.083000 9.801000 282.604000
117.499000 9.809000 282.824000
117.739000 9.802000 282.621000
118.113000 9.806000 282.738000
118.370000 9.800000 282.576000
118.699000 9.801000 282.587000
119.008000 9.800000 282.550000
119.308000 9.798000 282.494000
119.643000 9.798000 282.518000
119.956000 9.797000 282.491000
120.284000 9.798000 282.499000
120.548000 9.793000 282.358000
120.886000 9.794000 282.390000
121.183000 9.792000 282.326000
121.527000 9.793000 282.373000
121.798000 9.789000 282.251000
122.066000 9.785000 282.121000
122.439000 9.789000 282.233000
122.694000 9.783000 282.074000
123.056000 9.786000 282.162000
123.319000 9.781000 282.023000
50.267000 10.541000 294.182000
50.544000 10.528000 293.833000
50.891000 10.530000 293.887000
51.212000 10.527000 293.791000
51.508000 10.518000 293.557000
51.849000 10.519000 293.576000
52.227000 10.527000 293.809000
52.541000 10.523000 293.678000
52.866000 10.520000 293.608000
53.185000 10.517000 293.509000
53.508000 10.514000 293.435000
53.811000 10.507000 293.249000
54.098000 10.498000 292.977000
54.481000 10.507000 293.228000
54.810000 10.505000 293.187000
55.144000 10.505000 293.172000
55.446000 10.498000 292.992000
55.785000 10.499000 293.005000
56.080000 10.491000 292.790000
56.449000 10.497000 292.959000
56.729000 10.486000 292.668000
57.092000 10.491000 292.805000
57.367000 10.480000 292.496000
57.737000 10.486000 292.667000
57.994000 10.472000 292.266000
58.403000 10.485000 292.635000
58.648000 10.469000 292.181000
59.030000 10.477000 292.412000
59.282000 10.463000 292.001000
59.693000 10.476000 292.370000
59.954000 10.463000 292.009000
60.323000 10.469000 292.169000
60.594000 10.457000 291.859000
60.960000 10.463000 292.009000
61.248000 10.455000 291.782000
61.595000 10.457000 291.837000
61.893000 10.451000 291.666000
62.236000 10.452000 291.700000
62.549000 10.448000 291.600000
62.861000 10.444000 291.494000
63.170000 10.440000 291.375000
63.484000 10.437000 291.283000
63.838000 10.440000 291.368000
64.131000 10.433000 291.179000
64.490000 10.437000 291.291000
64.769000 10.428000 291.044000
65.137000 10.434000 291.195000
65.394000 10.421000 290.849000
65.764000 10.427000 291.009000
66.013000 10.414000 290.635000
66.434000 10.427000 291.019000
67.938000 10.402000 290.302000
68.318000 10.409000 290.502000
68.565000 10.396000 290.138000
68.945000 10.403000 290.331000
69.208000 10.392000 290.037000
69.562000 10.395000 290.127000
69.848000 10.388000 289.929000
70.191000 10.390000 289.973000
70.488000 10.385000 289.825000
70.816000 10.384000 289.805000
71.148000 10.384000 289.799000
71.450000 10.379000 289.677000
71.798000 10.381000 289.738000
72.079000 10.374000 289.530000
115.658000 10.143000 283.086000
115.988000 10.144000 283.098000
116.285000 10.141000 283.030000
116.600000 10.140000 283.005000
116.932000 10.141000 283.024000
117.252000 10.140000 283.012000
117.568000 10.140000 282.988000
117.879000 10.138000 282.955000
118.211000 10.139000 282.973000
118.493000 10.135000 282.870000
118.828000 10.136000 282.894000
119.104000 10.132000 282.779000
119.412000 10.131000 282.738000
119.758000 10.133000 282.790000
120.069000 10.131000 282.758000
120.372000 10.130000 282.706000
120.625000 10.124000 282.539000
121.002000 10.128000 282.661000
121.262000 10.123000 282.511000
121.648000 10.128000 282.653000
121.876000 10.120000 282.430000
122.237000 10.123000 282.515000
122.518000 10.119000 282.414000
122.849000 10.120000 282.431000
123.146000 10.117000 282.367000
123.454000 10.116000 282.330000
50.528000 10.862000 293.738000
50.828000 10.854000 293.524000
51.197000 10.861000 293.706000
51.495000 10.853000 293.482000
51.806000 10.847000 293.337000
52.178000 10.854000 293.531000
52.484000 10.848000 293.359000
52.791000 10.842000 293.196000
53.116000 10.840000 293.130000
53.444000 10.838000 293.083000
53.772000 10.836000 293.035000
54.066000 10.828000 292.804000
54.403000 10.828000 292.810000
54.740000 10.828000 292.814000
55.075000 10.828000 292.808000
55.362000 10.818000 292.545000
55.718000 10.822000 292.654000
56.002000 10.812000 292.382000
56.382000 10.820000 292.609000
56.646000 10.807000 292.240000
57.018000 10.814000 292.428000
57.282000 10.800000 292.061000
58.576000 10.791000 291.822000
58.961000 10.800000 292.072000
59.207000 10.784000 291.632000
59.614000 10.797000 291.985000
59.877000 10.784000 291.633000
60.241000 10.789000 291.773000
60.508000 10.777000 291.448000
60.888000 10.785000 291.665000
61.177000 10.777000 291.443000
61.518000 10.778000 291.473000
61.811000 10.771000 291.279000
62.157000 10.773000 291.334000
62.475000 10.770000 291.256000
62.782000 10.766000 291.129000
63.091000 10.761000 291.009000
63.407000 10.758000 290.927000
63.768000 10.763000 291.049000
64.054000 10.755000 290.833000
64.401000 10.757000 290.891000
64.678000 10.747000 290.633000
65.063000 10.756000 290.862000
65.316000 10.742000 290.502000
65.692000 10.749000 290.690000
65.932000 10.734000 290.278000
66.365000 10.750000 290.713000
67.856000 10.722000 289.952000
68.240000 10.730000 290.169000
68.488000 10.717000 289.808000
68.872000 10.725000 290.027000
69.134000 10.714000 289.729000
69.478000 10.716000 289.774000
69.764000 10.708000 289.580000
70.101000 10.709000 289.599000
70.414000 10.706000 289.520000
70.743000 10.706000 289.504000
71.068000 10.705000 289.477000
71.377000 10.701000 289.379000
71.709000 10.701000 289.381000
71.993000 10.694000 289.185000
115.820000 10.483000 283.484000
116.076000 10.477000 283.313000
116.409000 10.477000 283.332000
116.706000 10.475000 283.264000
117.038000 10.475000 283.280000
117.357000 10.475000 283.266000
117.658000 10.473000 283.207000
117.972000 10.472000 283.180000
118.311000 10.473000 283.213000
118.597000 10.469000 283.119000
118.933000 10.470000 283.144000
119.203000 10.466000 283.014000
119.531000 10.466000 283.021000
119.853000 10.466000 283.014000
120.215000 10.469000 283.101000
120.466000 10.462000 282.927000
120.751000 10.459000 282.834000
121.075000 10.459000 282.833000
121.369000 10.456000 282.760000
121.731000 10.459000 282.846000
121.983000 10.453000 282.679000
122.347000 10.457000 282.770000
122.601000 10.450000 282.607000
122.971000 10.454000 282.712000
123.243000 10.450000 282.591000
123.583000 10.451000 282.625000
50.432000 11.178000 293.180000
50.771000 11.179000 293.192000
51.050000 11.166000 292.865000
51.426000 11.175000 293.089000
51.711000 11.164000 292.799000
52.030000 11.160000 292.698000
52.367000 11.160000 292.707000
52.690000 11.157000 292.634000
52.999000 11.152000 292.486000
53.358000 11.156000 292.612000
53.648000 11.147000 292.359000
53.923000 11.134000 292.029000
54.329000 11.149000 292.411000
54.637000 11.143000 292.262000
54.993000 11.147000 292.374000
55.284000 11.138000 292.133000
55.634000 11.141000 292.214000
55.916000 11.131000 291.933000
56.290000 11.138000 292.135000
56.557000 11.125000 291.781000
56.937000 11.133000 292.009000
57.191000 11.118000 291.598000
58.490000 11.110000 291.395000
58.877000 11.120000 291.655000
59.125000 11.104000 291.226000
59.515000 11.114000 291.501000
59.779000 11.101000 291.154000
60.155000 11.109000 291.355000
60.422000 11.096000 291.033000
60.792000 11.103000 291.204000
61.084000 11.095000 291.001000
61.427000 11.097000 291.042000
61.725000 11.090000 290.873000
62.061000 11.091000 290.884000
62.376000 11.087000 290.794000
62.682000 11.082000 290.663000
62.994000 11.078000 290.562000
63.314000 11.076000 290.502000
63.669000 11.080000 290.600000
63.960000 11.072000 290.405000
64.312000 11.075000 290.488000
64.588000 11.066000 290.231000
64.975000 11.075000 290.470000
65.225000 11.061000 290.099000
65.582000 11.065000 290.205000
65.826000 11.050000 289.811000
67.757000 11.039000 289.531000
68.143000 11.048000 289.757000
68.398000 11.035000 289.430000
68.751000 11.038000 289.514000
69.033000 11.030000 289.307000
69.381000 11.033000 289.372000
69.672000 11.026000 289.198000
70.014000 11.028000 289.239000
70.320000 11.024000 289.132000
70.648000 11.023000 289.118000
70.978000 11.023000 289.109000
71.266000 11.016000 288.930000
71.629000 11.021000 289.058000
71.888000 11.010000 288.763000
115.913000 10.817000 283.710000
116.174000 10.811000 283.552000
116.538000 10.815000 283.647000
116.790000 10.808000 283.467000
117.162000 10.812000 283.581000
117.407000 10.805000 283.385000
117.790000 10.810000 283.524000
118.043000 10.803000 283.351000
118.409000 10.807000 283.447000
118.698000 10.804000 283.361000
119.021000 10.803000 283.354000
119.311000 10.800000 283.270000
119.651000 10.802000 283.306000
120.010000 10.805000 283.384000
120.289000 10.801000 283.276000
120.531000 10.793000 283.081000
120.874000 10.795000 283.121000
121.154000 10.791000 283.018000
121.540000 10.796000 283.158000
121.814000 10.792000 283.041000
122.166000 10.794000 283.102000
122.421000 10.788000 282.941000
122.750000 10.788000 282.951000
123.057000 10.786000 282.908000
123.355000 10.784000 282.847000
123.671000 10.783000 282.827000
50.379000 11.503000 292.873000
50.717000 11.503000 292.879000
51.009000 11.493000 292.627000
51.313000 11.486000 292.447000
51.684000 11.494000 292.642000
51.986000 11.486000 292.452000
52.306000 11.483000 292.366000
52.646000 11.484000 292.388000
52.961000 11.479000 292.276000
53.292000 11.478000 292.248000
53.627000 11.478000 292.244000
53.896000 11.464000 291.884000
54.286000 11.475000 292.179000
54.571000 11.465000 291.909000
54.925000 11.469000 292.008000
55.201000 11.457000 291.698000
55.558000 11.461000 291.812000
55.830000 11.448000 291.480000
56.218000 11.459000 291.758000
56.476000 11.443000 291.361000
56.872000 11.456000 291.678000
58.406000 11.428000 290.978000
58.796000 11.439000 291.253000
59.043000 11.422000 290.822000
59.433000 11.433000 291.096000
59.691000 11.418000 290.725000
60.068000 11.427000 290.936000
60.346000 11.416000 290.664000
60.706000 11.421000 290.790000
60.994000 11.412000 290.572000
61.347000 11.416000 290.663000
61.649000 11.410000 290.514000
61.980000 11.410000 290.501000
62.287000 11.405000 290.377000
62.596000 11.400000 290.264000
62.919000 11.398000 290.216000
63.235000 11.395000 290.137000
63.589000 11.399000 290.233000
63.879000 11.391000 290.039000
64.238000 11.396000 290.153000
64.515000 11.386000 289.901000
64.904000 11.396000 290.151000
65.151000 11.381000 289.769000
65.506000 11.385000 289.869000
65.752000 11.370000 289.485000
67.058000 11.366000 289.385000
67.455000 11.377000 289.659000
67.688000 11.360000 289.237000
68.081000 11.370000 289.495000
68.329000 11.356000 289.137000
68.684000 11.360000 289.235000
68.963000 11.351000 289.013000
69.323000 11.356000 289.130000
69.623000 11.350000 288.995000
69.953000 11.350000 288.990000
70.262000 11.347000 288.896000
115.706000 11.154000 284.003000
115.973000 11.149000 283.858000
116.341000 11.153000 283.960000
116.641000 11.150000 283.897000
116.940000 11.148000 283.832000
117.271000 11.148000 283.844000
117.523000 11.141000 283.665000
117.920000 11.148000 283.837000
118.154000 11.139000 283.617000
118.523000 11.143000 283.720000
118.809000 11.139000 283.624000
119.116000 11.138000 283.580000
119.431000 11.137000 283.555000
119.756000 11.137000 283.553000
120.115000 11.140000 283.633000
120.356000 11.132000 283.433000
120.708000 11.134000 283.496000
120.967000 11.128000 283.340000
121.299000 11.129000 283.356000
121.615000 11.128000 283.333000
121.999000 11.133000 283.469000
122.236000 11.125000 283.264000
122.500000 11.120000 283.122000
122.856000 11.123000 283.195000
123.134000 11.118000 283.085000
123.485000 11.121000 283.147000
123.781000 11.118000 283.079000
49.618000 11.818000 292.353000
49.966000 11.821000 292.421000
50.282000 11.816000 292.308000
50.618000 11.816000 292.309000
50.903000 11.804000 292.018000
51.272000 11.812000 292.210000
51.550000 11.799000 291.883000
51.924000 11.808000 292.105000
52.212000 11.797000 291.837000
52.537000 11.795000 291.786000
52.902000 11.802000 291.946000
53.216000 11.797000 291.830000
53.561000 11.799000 291.887000
53.861000 11.791000 291.693000
54.190000 11.790000 291.663000
54.503000 11.785000 291.546000
54.852000 11.788000 291.620000
55.137000 11.778000 291.356000
55.505000 11.785000 291.535000
55.776000 11.771000 291.200000
56.161000 11.782000 291.465000
56.417000 11.766000 291.059000
56.800000 11.776000 291.308000
58.332000 11.747000 290.607000
58.737000 11.762000 290.960000
58.984000 11.744000 290.532000
59.373000 11.755000 290.803000
59.641000 11.742000 290.485000
59.978000 11.743000 290.497000
60.283000 11.738000 290.362000
60.634000 11.741000 290.446000
60.934000 11.734000 290.284000
61.281000 11.737000 290.352000
61.577000 11.730000 290.173000
61.915000 11.731000 290.196000
62.234000 11.728000 290.129000
62.530000 11.721000 289.957000
62.888000 11.726000 290.073000
63.172000 11.717000 289.847000
63.529000 11.721000 289.961000
63.815000 11.713000 289.747000
115.794000 11.489000 284.219000
116.075000 11.485000 284.107000
116.445000 11.489000 284.214000
116.734000 11.485000 284.124000
117.053000 11.485000 284.105000
117.347000 11.481000 284.028000
117.691000 11.483000 284.070000
117.999000 11.481000 284.026000
118.292000 11.478000 283.948000
118.653000 11.482000 284.031000
118.921000 11.476000 283.893000
119.267000 11.478000 283.941000
119.545000 11.473000 283.827000
119.895000 11.476000 283.883000
120.196000 11.473000 283.824000
120.456000 11.467000 283.668000
120.797000 11.468000 283.704000
121.046000 11.461000 283.526000
121.433000 11.467000 283.668000
121.692000 11.461000 283.512000
122.082000 11.467000 283.663000
122.315000 11.458000 283.448000
122.661000 11.460000 283.494000
122.952000 11.457000 283.415000
123.289000 11.458000 283.442000
123.587000 11.455000 283.380000
123.912000 11.455000 283.378000
124.227000 11.454000 283.354000
50.211000 12.135000 291.894000
50.580000 12.143000 292.090000
50.864000 12.131000 291.797000
51.251000 12.143000 292.092000
51.527000 12.129000 291.757000
51.811000 12.117000 291.468000
52.175000 12.124000 291.635000
52.477000 12.116000 291.449000
52.833000 12.121000 291.569000
53.169000 12.121000 291.571000
53.484000 12.117000 291.464000
53.789000 12.110000 291.305000
54.147000 12.115000 291.431000
58.280000 12.070000 290.348000
58.689000 12.086000 290.722000
58.938000 12.069000 290.305000
115.892000 11.826000 284.459000
116.248000 11.829000 284.531000
116.511000 11.822000 284.376000
116.861000 11.824000 284.433000
117.132000 11.819000 284.297000
117.456000 11.819000 284.292000
117.786000 11.819000 284.301000
118.099000 11.818000 284.267000
118.381000 11.813000 284.160000
118.739000 11.816000 284.236000
119.024000 11.812000 284.139000
119.370000 11.814000 284.186000
119.634000 11.808000 284.038000
119.992000 11.811000 284.113000
120.282000 11.808000 284.027000
120.620000 11.809000 284.055000
120.883000 11.803000 283.906000
121.195000 11.801000 283.874000
121.514000 11.801000 283.858000
121.810000 11.798000 283.788000
122.156000 11.800000 283.835000
122.420000 11.794000 283.690000
122.779000 11.797000 283.769000
123.060000 11.793000 283.666000
123.418000 11.796000 283.738000
123.701000 11.791000 283.640000
124.022000 11.791000 283.631000
124.325000 11.789000 283.579000
124.631000 11.787000 283.534000
50.159000 12.457000 291.595000
50.542000 12.469000 291.873000
50.842000 12.460000 291.671000
51.183000 12.462000 291.703000
51.513000 12.461000 291.678000
51.799000 12.449000 291.400000
52.166000 12.456000 291.583000
52.465000 12.448000 291.381000
52.799000 12.448000 291.382000
53.131000 12.447000 291.367000
53.452000 12.444000 291.293000
53.750000 12.436000 291.095000
116.010000 12.164000 284.748000
116.329000 12.164000 284.730000
116.615000 12.159000 284.629000
116.972000 12.163000 284.703000
117.214000 12.154000 284.496000
117.585000 12.158000 284.604000
117.870000 12.154000 284.503000
118.206000 12.155000 284.526000
118.469000 12.148000 284.372000
118.821000 12.151000 284.434000
119.120000 12.148000 284.367000
119.450000 12.149000 284.376000
119.769000 12.148000 284.358000
120.061000 12.144000 284.276000
120.374000 12.143000 284.244000
120.698000 12.143000 284.238000
120.993000 12.140000 284.166000
121.326000 12.140000 284.180000
121.591000 12.134000 284.038000
121.961000 12.139000 284.140000
122.240000 12.134000 284.030000
122.550000 12.132000 283.991000
122.856000 12.130000 283.946000
123.179000 12.130000 283.940000
123.501000 12.130000 283.929000
123.811000 12.128000 283.893000
124.132000 12.128000 283.882000
124.437000 12.125000 283.833000
124.772000 12.126000 283.855000
50.120000 12.782000 291.363000
50.490000 12.791000 291.569000
50.818000 12.789000 291.533000
51.131000 12.784000 291.408000
51.498000 12.792000 291.591000
51.787000 12.780000 291.336000
52.156000 12.789000 291.526000
52.448000 12.778000 291.289000
52.763000 12.774000 291.180000
53.092000 12.772000 291.151000
53.429000 12.773000 291.166000
53.715000 12.762000 290.907000
115.782000 12.502000 284.992000
116.146000 12.506000 285.082000
116.409000 12.499000 284.925000
116.723000 12.498000 284.892000
117.063000 12.499000 284.924000
117.336000 12.493000 284.794000
117.696000 12.497000 284.874000
117.971000 12.491000 284.746000
118.330000 12.495000 284.824000
118.602000 12.489000 284.692000
118.960000 12.492000 284.766000
119.245000 12.488000 284.665000
119.569000 12.488000 284.659000
119.885000 12.486000 284.634000
120.135000 12.478000 284.450000
120.513000 12.484000 284.572000
120.792000 12.479000 284.460000
121.162000 12.483000 284.562000
121.417000 12.476000 284.393000
121.799000 12.482000 284.524000
122.046000 12.473000 284.337000
122.396000 12.476000 284.393000
122.661000 12.470000 284.251000
123.000000 12.471000 284.279000
123.319000 12.470000 284.261000
123.624000 12.468000 284.213000
123.948000 12.468000 284.208000
124.263000 12.467000 284.181000
124.564000 12.464000 284.122000
124.895000 12.464000 284.133000
125.146000 12.457000 283.963000
50.150000 13.124000 291.542000
50.528000 13.135000 291.790000
50.842000 13.130000 291.669000
51.147000 13.122000 291.497000
51.513000 13.130000 291.673000
51.803000 13.119000 291.421000
52.176000 13.129000 291.636000
52.469000 13.118000 291.405000
52.812000 13.120000 291.450000
53.136000 13.118000 291.392000
53.453000 13.113000 291.297000
53.765000 13.108000 291.178000
115.918000 12.845000 285.328000
116.229000 12.843000 285.287000
116.515000 12.838000 285.184000
116.825000 12.836000 285.142000
117.164000 12.837000 285.170000
117.440000 12.832000 285.045000
117.794000 12.835000 285.110000
118.074000 12.830000 284.996000
118.424000 12.832000 285.050000
118.696000 12.826000 284.916000
119.080000 12.832000 285.053000
119.333000 12.824000 284.876000
119.686000 12.827000 284.937000
119.956000 12.821000 284.802000
120.286000 12.821000 284.809000
120.602000 12.820000 284.783000
120.900000 12.817000 284.714000
121.249000 12.819000 284.767000
121.513000 12.813000 284.618000
121.878000 12.817000 284.708000
122.126000 12.808000 284.524000
122.513000 12.815000 284.664000
122.750000 12.805000 284.456000
123.145000 12.812000 284.614000
123.420000 12.807000 284.495000
123.758000 12.808000 284.521000
124.065000 12.806000 284.475000
124.379000 12.805000 284.447000
124.675000 12.802000 284.376000
124.974000 12.799000 284.314000
125.277000 12.796000 284.260000
125.590000 12.795000 284.230000
49.213000 13.477000 291.941000
49.567000 13.483000 292.053000
49.887000 13.478000 291.959000
50.213000 13.476000 291.907000
50.572000 13.482000 292.046000
50.864000 13.471000 291.796000
51.245000 13.483000 292.060000
51.533000 13.470000 291.787000
51.874000 13.472000 291.825000
52.205000 13.471000 291.801000
52.511000 13.464000 291.641000
52.866000 13.469000 291.749000
53.182000 13.464000 291.646000
116.058000 13.188000 285.672000
116.360000 13.185000 285.607000
116.694000 13.186000 285.622000
116.962000 13.179000 285.477000
117.333000 13.184000 285.582000
117.578000 13.175000 285.380000
117.924000 13.177000 285.424000
118.214000 13.172000 285.333000
118.549000 13.173000 285.350000
118.850000 13.170000 285.287000
119.201000 13.173000 285.342000
119.491000 13.169000 285.252000
119.807000 13.167000 285.226000
120.097000 13.163000 285.136000
120.442000 13.165000 285.179000
120.705000 13.158000 285.025000
121.076000 13.163000 285.129000
121.345000 13.157000 284.992000
121.710000 13.161000 285.079000
121.999000 13.157000 284.990000
122.313000 13.155000 284.959000
122.626000 13.154000 284.926000
122.902000 13.148000 284.807000
123.232000 13.149000 284.816000
123.551000 13.148000 284.797000
