132.166000 -17.019000 363.315000
132.592000 -17.020000 363.339000
133.181000 -17.043000 363.810000
133.562000 -17.038000 363.708000
134.229000 -17.070000 364.387000
134.542000 -17.056000 364.101000
135.257000 -17.094000 364.902000
135.525000 -17.075000 364.495000
135.825000 -17.060000 364.177000
18.135000 -14.205000 310.859000
18.479000 -14.195000 310.637000
18.822000 -14.184000 310.406000
19.167000 -14.176000 310.223000
19.511000 -14.167000 310.026000
19.852000 -14.157000 309.798000
20.197000 -14.149000 309.630000
20.545000 -14.144000 309.522000
20.888000 -14.135000 309.334000
21.235000 -14.130000 309.220000
21.582000 -14.125000 309.101000
21.927000 -14.118000 308.960000
22.272000 -14.112000 308.821000
22.621000 -14.108000 308.745000
22.964000 -14.102000 308.593000
23.313000 -14.098000 308.522000
23.662000 -14.096000 308.463000
24.010000 -14.092000 308.378000
24.357000 -14.087000 308.283000
24.707000 -14.086000 308.243000
25.056000 -14.083000 308.177000
25.411000 -14.083000 308.187000
25.758000 -14.079000 308.105000
26.112000 -14.080000 308.114000
26.461000 -14.077000 308.049000
26.811000 -14.075000 308.010000
27.162000 -14.073000 307.977000
27.515000 -14.073000 307.971000
27.870000 -14.074000 307.986000
28.226000 -14.075000 308.014000
28.579000 -14.075000 308.002000
28.935000 -14.076000 308.034000
29.294000 -14.078000 308.087000
29.657000 -14.083000 308.182000
30.008000 -14.081000 308.151000
30.373000 -14.087000 308.264000
30.727000 -14.087000 308.268000
31.095000 -14.093000 308.410000
31.451000 -14.094000 308.426000
31.815000 -14.098000 308.521000
32.177000 -14.101000 308.591000
32.545000 -14.108000 308.729000
32.909000 -14.111000 308.809000
33.278000 -14.118000 308.944000
33.646000 -14.123000 309.072000
34.024000 -14.133000 309.278000
34.390000 -14.138000 309.380000
34.772000 -14.148000 309.611000
35.136000 -14.152000 309.689000
35.525000 -14.165000 309.982000
35.907000 -14.175000 310.207000
36.286000 -14.184000 310.403000
36.674000 -14.196000 310.667000
37.061000 -14.208000 310.924000
37.436000 -14.215000 311.070000
37.844000 -14.234000 311.492000
38.234000 -14.246000 311.750000
38.632000 -14.261000 312.077000
39.023000 -14.273000 312.338000
39.452000 -14.298000 312.898000
39.837000 -14.307000 313.098000
40.270000 -14.333000 313.668000
78.771000 -15.381000 336.592000
79.304000 -15.410000 337.217000
79.597000 -15.391000 336.818000
80.144000 -15.422000 337.494000
80.426000 -15.402000 337.049000
81.108000 -15.458000 338.281000
83.108000 -15.469000 338.518000
83.727000 -15.512000 339.451000
83.982000 -15.487000 338.907000
84.555000 -15.520000 339.644000
84.910000 -15.514000 339.504000
85.452000 -15.542000 340.111000
85.833000 -15.540000 340.073000
86.321000 -15.558000 340.459000
86.742000 -15.563000 340.574000
87.203000 -15.576000 340.850000
87.616000 -15.579000 340.932000
88.097000 -15.595000 341.281000
88.631000 -15.620000 341.827000
88.938000 -15.605000 341.498000
89.495000 -15.634000 342.132000
89.789000 -15.617000 341.752000
90.419000 -15.658000 342.655000
90.694000 -15.638000 342.207000
91.340000 -15.681000 343.158000
93.407000 -15.697000 343.512000
94.058000 -15.740000 344.453000
94.373000 -15.727000 344.161000
94.937000 -15.755000 344.774000
95.300000 -15.749000 344.652000
95.813000 -15.769000 345.076000
96.232000 -15.772000 345.159000
96.690000 -15.783000 345.379000
97.172000 -15.796000 345.683000
97.619000 -15.804000 345.858000
98.143000 -15.825000 346.307000
98.540000 -15.825000 346.304000
99.114000 -15.853000 346.922000
99.392000 -15.834000 346.502000
100.034000 -15.873000 347.351000
102.151000 -15.892000 347.769000
102.874000 -15.942000 348.866000
103.143000 -15.922000 348.422000
103.760000 -15.955000 349.149000
104.053000 -15.938000 348.789000
104.654000 -15.969000 349.457000
105.119000 -15.979000 349.669000
105.526000 -15.979000 349.687000
106.044000 -15.997000 350.073000
106.507000 -16.006000 350.275000
106.996000 -16.019000 350.557000
107.397000 -16.019000 350.553000
107.979000 -16.046000 351.138000
108.292000 -16.032000 350.844000
108.987000 -16.075000 351.789000
109.219000 -16.050000 351.236000
111.143000 -16.095000 352.219000
111.920000 -16.149000 353.397000
112.167000 -16.126000 352.897000
112.825000 -16.162000 353.690000
113.133000 -16.148000 353.383000
113.708000 -16.172000 353.910000
114.193000 -16.183000 354.152000
114.620000 -16.186000 354.215000
115.139000 -16.202000 354.561000
115.555000 -16.203000 354.590000
116.131000 -16.227000 355.106000
116.503000 -16.222000 354.996000
117.161000 -16.257000 355.757000
117.464000 -16.242000 355.438000
118.141000 -16.279000 356.248000
118.374000 -16.255000 355.719000
119.151000 -16.306000 356.823000
119.356000 -16.278000 356.211000
120.092000 -16.322000 357.183000
120.462000 -16.317000 357.065000
121.101000 -16.347000 357.741000
121.460000 -16.340000 357.588000
122.052000 -16.365000 358.122000
122.406000 -16.357000 357.954000
122.956000 -16.376000 358.360000
123.516000 -16.395000 358.791000
123.868000 -16.387000 358.615000
124.479000 -16.414000 359.192000
124.828000 -16.405000 359.008000
125.467000 -16.435000 359.659000
125.810000 -16.426000 359.459000
126.599000 -16.475000 360.531000
126.821000 -16.450000 359.985000
127.559000 -16.492000 360.904000
127.836000 -16.474000 360.516000
128.544000 -16.512000 361.341000
128.898000 -16.504000 361.171000
129.524000 -16.531000 361.763000
129.899000 -16.526000 361.649000
130.469000 -16.546000 362.080000
130.902000 -16.548000 362.127000
131.418000 -16.560000 362.403000
132.007000 -16.582000 362.879000
132.444000 -16.585000 362.933000
133.035000 -16.607000 363.411000
133.424000 -16.603000 363.332000
134.132000 -16.639000 364.123000
134.440000 -16.625000 363.825000
135.165000 -16.663000 364.654000
135.464000 -16.649000 364.330000
135.816000 -16.641000 364.154000
17.434000 -13.858000 311.085000
17.779000 -13.849000 310.878000
18.124000 -13.839000 310.660000
18.468000 -13.830000 310.459000
18.811000 -13.820000 310.234000
19.155000 -13.811000 310.035000
19.499000 -13.803000 309.848000
19.842000 -13.794000 309.642000
20.184000 -13.785000 309.431000
20.537000 -13.783000 309.401000
20.881000 -13.776000 309.235000
21.226000 -13.770000 309.094000
21.571000 -13.763000 308.942000
21.916000 -13.757000 308.812000
22.262000 -13.752000 308.690000
22.612000 -13.749000 308.631000
22.955000 -13.742000 308.473000
23.297000 -13.735000 308.311000
23.653000 -13.736000 308.339000
24.001000 -13.732000 308.262000
24.347000 -13.728000 308.156000
24.694000 -13.724000 308.080000
25.041000 -13.720000 307.987000
25.394000 -13.720000 307.987000
25.744000 -13.718000 307.939000
26.097000 -13.718000 307.929000
26.450000 -13.717000 307.922000
26.800000 -13.715000 307.879000
27.151000 -13.714000 307.856000
27.504000 -13.714000 307.853000
27.854000 -13.713000 307.817000
28.212000 -13.714000 307.857000
28.561000 -13.713000 307.815000
28.923000 -13.716000 307.900000
29.280000 -13.718000 307.941000
29.641000 -13.722000 308.022000
29.994000 -13.721000 308.006000
30.355000 -13.724000 308.080000
30.710000 -13.725000 308.101000
31.077000 -13.731000 308.232000
31.436000 -13.733000 308.279000
31.800000 -13.738000 308.380000
32.160000 -13.740000 308.434000
32.527000 -13.746000 308.558000
32.889000 -13.749000 308.628000
33.260000 -13.756000 308.783000
33.625000 -13.760000 308.877000
33.999000 -13.768000 309.054000
34.370000 -13.774000 309.192000
34.752000 -13.785000 309.434000
35.112000 -13.786000 309.475000
35.497000 -13.798000 309.741000
35.873000 -13.806000 309.913000
36.258000 -13.817000 310.166000
36.645000 -13.829000 310.425000
37.027000 -13.838000 310.634000
37.412000 -13.849000 310.876000
37.812000 -13.865000 311.229000
38.206000 -13.878000 311.521000
38.590000 -13.887000 311.741000
38.991000 -13.903000 312.085000
39.404000 -13.922000 312.513000
39.810000 -13.938000 312.885000
40.233000 -13.961000 313.384000
75.720000 -14.927000 335.068000
76.125000 -14.931000 335.156000
76.552000 -14.939000 335.340000
77.015000 -14.954000 335.679000
77.454000 -14.964000 335.912000
77.873000 -14.971000 336.056000
78.350000 -14.988000 336.448000
78.720000 -14.985000 336.376000
79.267000 -15.015000 337.059000
79.562000 -14.998000 336.671000
80.119000 -15.030000 337.387000
80.385000 -15.007000 336.879000
81.014000 -15.052000 337.890000
83.070000 -15.073000 338.360000
83.674000 -15.112000 339.237000
83.941000 -15.090000 338.741000
84.523000 -15.125000 339.515000
84.818000 -15.108000 339.137000
85.366000 -15.136000 339.770000
85.769000 -15.138000 339.820000
86.266000 -15.157000 340.242000
86.691000 -15.163000 340.375000
87.111000 -15.168000 340.487000
87.572000 -15.180000 340.760000
88.054000 -15.196000 341.115000
88.482000 -15.202000 341.251000
88.901000 -15.207000 341.358000
89.449000 -15.233000 341.953000
89.736000 -15.216000 341.553000
90.353000 -15.253000 342.403000
90.623000 -15.233000 341.940000
91.270000 -15.275000 342.893000
93.368000 -15.297000 343.371000
93.993000 -15.334000 344.214000
94.268000 -15.315000 343.777000
94.852000 -15.345000 344.465000
95.224000 -15.341000 344.379000
95.714000 -15.356000 344.718000
96.136000 -15.361000 344.815000
96.612000 -15.374000 345.100000
97.114000 -15.390000 345.476000
97.494000 -15.388000 345.415000
98.023000 -15.408000 345.884000
98.472000 -15.417000 346.065000
99.020000 -15.440000 346.594000
99.338000 -15.428000 346.315000
99.963000 -15.463000 347.104000
102.031000 -15.474000 347.360000
102.711000 -15.517000 348.311000
103.013000 -15.502000 347.980000
103.653000 -15.538000 348.789000
103.968000 -15.525000 348.506000
104.555000 -15.553000 349.128000
104.899000 -15.545000 348.939000
105.440000 -15.565000 349.404000
105.943000 -15.580000 349.739000
106.308000 -15.575000 349.621000
106.892000 -15.602000 350.219000
107.271000 -15.598000 350.143000
107.835000 -15.622000 350.667000
108.170000 -15.612000 350.448000
108.858000 -15.653000 351.371000
109.091000 -15.628000 350.822000
110.978000 -15.667000 351.696000
111.645000 -15.704000 352.526000
111.946000 -15.690000 352.201000
112.598000 -15.724000 352.977000
112.987000 -15.722000 352.926000
113.574000 -15.747000 353.493000
113.925000 -15.740000 353.321000
114.454000 -15.757000 353.703000
115.002000 -15.776000 354.139000
115.382000 -15.773000 354.058000
116.005000 -15.802000 354.718000
116.334000 -15.791000 354.482000
116.986000 -15.825000 355.224000
117.277000 -15.809000 354.871000
117.968000 -15.847000 355.726000
118.202000 -15.824000 355.202000
118.961000 -15.870000 356.252000
119.206000 -15.849000 355.762000
119.889000 -15.885000 356.580000
120.192000 -15.871000 356.264000
120.854000 -15.904000 357.011000
121.284000 -15.907000 357.070000
121.806000 -15.921000 357.400000
122.258000 -15.927000 357.521000
122.798000 -15.944000 357.897000
123.271000 -15.952000 358.078000
123.761000 -15.962000 358.307000
124.356000 -15.985000 358.837000
124.679000 -15.974000 358.579000
125.302000 -16.001000 359.184000
125.597000 -15.986000 358.850000
126.361000 -16.031000 359.853000
126.631000 -16.013000 359.444000
127.394000 -16.057000 360.435000
127.655000 -16.038000 360.005000
128.324000 -16.070000 360.723000
128.709000 -16.066000 360.641000
129.326000 -16.091000 361.208000
129.762000 -16.094000 361.269000
130.289000 -16.108000 361.578000
130.762000 -16.115000 361.740000
131.269000 -16.126000 361.993000
131.793000 -16.139000 362.289000
132.207000 -16.139000 362.284000
132.828000 -16.164000 362.845000
133.219000 -16.161000 362.774000
133.904000 -16.193000 363.504000
134.216000 -16.181000 363.218000
134.991000 -16.224000 364.183000
135.331000 -16.214000 363.972000
135.789000 -16.219000 364.081000
17.425000 -13.494000 310.918000
17.768000 -13.484000 310.683000
18.112000 -13.474000 310.463000
18.458000 -13.466000 310.287000
18.801000 -13.457000 310.075000
19.145000 -13.448000 309.870000
19.490000 -13.441000 309.693000
19.834000 -13.433000 309.524000
20.175000 -13.424000 309.300000
20.523000 -13.419000 309.187000
20.869000 -13.413000 309.057000
21.213000 -13.406000 308.900000
21.559000 -13.401000 308.777000
21.905000 -13.396000 308.654000
22.251000 -13.390000 308.530000
22.598000 -13.386000 308.436000
22.946000 -13.382000 308.352000
23.289000 -13.376000 308.201000
23.640000 -13.374000 308.166000
23.989000 -13.372000 308.111000
24.335000 -13.368000 308.014000
24.682000 -13.364000 307.927000
25.029000 -13.360000 307.847000
25.382000 -13.360000 307.839000
25.733000 -13.359000 307.813000
26.081000 -13.356000 307.741000
26.437000 -13.357000 307.772000
26.784000 -13.354000 307.704000
27.136000 -13.354000 307.687000
27.491000 -13.354000 307.709000
27.839000 -13.352000 307.644000
28.200000 -13.355000 307.731000
28.551000 -13.355000 307.710000
28.912000 -13.358000 307.789000
29.265000 -13.358000 307.781000
29.625000 -13.360000 307.847000
29.978000 -13.361000 307.849000
30.337000 -13.363000 307.898000
30.695000 -13.365000 307.945000
31.059000 -13.369000 308.049000
31.420000 -13.372000 308.123000
31.786000 -13.377000 308.234000
32.144000 -13.379000 308.275000
32.506000 -13.383000 308.354000
32.874000 -13.388000 308.482000
33.246000 -13.395000 308.653000
33.609000 -13.399000 308.725000
33.983000 -13.406000 308.905000
34.351000 -13.412000 309.025000
34.730000 -13.421000 309.245000
35.094000 -13.424000 309.316000
35.480000 -13.436000 309.586000
35.852000 -13.442000 309.734000
36.238000 -13.454000 309.994000
36.613000 -13.461000 310.155000
37.003000 -13.473000 310.432000
37.387000 -13.483000 310.666000
37.787000 -13.498000 311.025000
38.171000 -13.508000 311.241000
38.571000 -13.523000 311.581000
38.971000 -13.537000 311.924000
39.371000 -13.552000 312.253000
39.771000 -13.566000 312.583000
40.196000 -13.588000 313.093000
79.481000 -14.597000 336.329000
80.050000 -14.630000 337.099000
80.318000 -14.608000 336.597000
80.896000 -14.643000 337.398000
82.934000 -14.661000 337.807000
83.535000 -14.698000 338.672000
83.856000 -14.686000 338.399000
84.441000 -14.721000 339.186000
84.733000 -14.704000 338.797000
85.280000 -14.731000 339.426000
85.631000 -14.724000 339.272000
86.133000 -14.744000 339.717000
86.554000 -14.749000 339.839000
87.013000 -14.761000 340.108000
87.501000 -14.777000 340.484000
87.851000 -14.770000 340.327000
88.366000 -14.791000 340.806000
88.795000 -14.797000 340.952000
89.316000 -14.819000 341.444000
89.659000 -14.810000 341.257000
90.239000 -14.841000 341.972000
90.500000 -14.820000 341.474000
91.162000 -14.864000 342.489000
93.233000 -14.881000 342.875000
93.847000 -14.916000 343.680000
94.177000 -14.905000 343.443000
94.750000 -14.934000 344.094000
95.082000 -14.924000 343.863000
95.624000 -14.947000 344.397000
96.030000 -14.948000 344.435000
96.502000 -14.960000 344.705000
96.976000 -14.972000 344.984000
97.390000 -14.975000 345.049000
97.932000 -14.997000 345.562000
98.243000 -14.984000 345.259000
98.828000 -15.013000 345.922000
99.185000 -15.007000 345.781000
99.879000 -15.052000 346.813000
101.926000 -15.060000 347.003000
102.593000 -15.099000 347.914000
102.862000 -15.080000 347.472000
103.488000 -15.113000 348.237000
103.902000 -15.115000 348.281000
104.442000 -15.136000 348.751000
104.822000 -15.133000 348.682000
105.370000 -15.154000 349.172000
105.791000 -15.157000 349.239000
106.241000 -15.164000 349.398000
106.818000 -15.189000 349.977000
107.146000 -15.178000 349.734000
107.749000 -15.207000 350.389000
108.054000 -15.193000 350.074000
108.759000 -15.236000 351.052000
108.995000 -15.212000 350.514000
110.910000 -15.254000 351.482000
111.584000 -15.291000 352.334000
111.842000 -15.271000 351.872000
112.467000 -15.301000 352.566000
112.929000 -15.309000 352.745000
113.467000 -15.327000 353.159000
113.874000 -15.327000 353.164000
114.398000 -15.343000 353.528000
114.902000 -15.356000 353.832000
115.321000 -15.358000 353.869000
115.937000 -15.386000 354.511000
116.247000 -15.373000 354.215000
116.903000 -15.406000 354.973000
117.198000 -15.391000 354.632000
117.895000 -15.429000 355.507000
118.114000 -15.404000 354.938000
118.903000 -15.454000 356.078000
119.143000 -15.432000 355.577000
119.831000 -15.468000 356.406000
120.131000 -15.454000 356.083000
120.775000 -15.484000 356.778000
121.147000 -15.479000 356.667000
121.679000 -15.495000 357.026000
122.171000 -15.505000 357.266000
122.658000 -15.515000 357.490000
123.178000 -15.529000 357.808000
123.683000 -15.541000 358.082000
124.271000 -15.563000 358.591000
124.624000 -15.555000 358.421000
125.244000 -15.581000 359.018000
125.529000 -15.566000 358.654000
126.243000 -15.603000 359.516000
126.514000 -15.585000 359.114000
127.261000 -15.627000 360.061000
127.554000 -15.612000 359.720000
128.221000 -15.643000 360.435000
128.554000 -15.633000 360.209000
129.216000 -15.663000 360.903000
129.667000 -15.667000 361.003000
130.167000 -15.678000 361.241000
130.679000 -15.689000 361.509000
131.188000 -15.701000 361.769000
131.710000 -15.713000 362.062000
132.132000 -15.714000 362.079000
132.713000 -15.734000 362.529000
133.099000 -15.730000 362.447000
133.762000 -15.759000 363.118000
134.067000 -15.746000 362.815000
134.869000 -15.791000 363.854000
135.218000 -15.783000 363.669000
135.745000 -15.796000 363.962000
17.418000 -13.132000 310.797000
17.761000 -13.122000 310.562000
18.105000 -13.113000 310.349000
18.451000 -13.105000 310.165000
18.794000 -13.096000 309.949000
19.136000 -13.087000 309.732000
19.479000 -13.078000 309.520000
19.825000 -13.071000 309.372000
20.167000 -13.063000 309.176000
20.513000 -13.058000 309.042000
20.860000 -13.052000 308.918000
21.203000 -13.045000 308.749000
21.547000 -13.039000 308.604000
21.893000 -13.034000 308.480000
22.239000 -13.029000 308.374000
22.586000 -13.025000 308.278000
22.935000 -13.022000 308.207000
23.280000 -13.017000 308.088000
23.627000 -13.013000 307.995000
23.977000 -13.011000 307.953000
24.323000 -13.008000 307.860000
24.673000 -13.006000 307.817000
25.022000 -13.003000 307.754000
25.371000 -13.001000 307.702000
25.723000 -13.000000 307.683000
26.071000 -12.998000 307.629000
26.424000 -12.998000 307.622000
26.771000 -12.994000 307.550000
27.123000 -12.994000 307.543000
27.479000 -12.995000 307.575000
27.829000 -12.994000 307.541000
28.191000 -12.998000 307.632000
28.539000 -12.995000 307.574000
28.900000 -12.999000 307.656000
29.252000 -12.998000 307.646000
29.610000 -13.001000 307.697000
29.966000 -13.002000 307.723000
30.319000 -13.002000 307.718000
30.682000 -13.006000 307.820000
31.041000 -13.008000 307.870000
31.404000 -13.012000 307.968000
31.772000 -13.018000 308.102000
32.130000 -13.020000 308.145000
32.491000 -13.022000 308.210000
32.858000 -13.027000 308.330000
33.227000 -13.033000 308.469000
33.593000 -13.038000 308.578000
33.971000 -13.047000 308.792000
34.333000 -13.050000 308.865000
34.709000 -13.058000 309.051000
35.076000 -13.062000 309.159000
35.462000 -13.074000 309.432000
35.836000 -13.081000 309.594000
36.221000 -13.091000 309.846000
36.596000 -13.098000 310.004000
36.984000 -13.110000 310.273000
37.356000 -13.115000 310.406000
37.757000 -13.131000 310.773000
38.144000 -13.141000 311.023000
38.547000 -13.157000 311.394000
38.942000 -13.169000 311.692000
39.337000 -13.182000 311.981000
39.742000 -13.197000 312.350000
40.168000 -13.220000 312.878000
40.567000 -13.233000 313.184000
82.878000 -14.263000 337.579000
83.453000 -14.295000 338.338000
83.800000 -14.288000 338.172000
84.385000 -14.322000 338.961000
84.693000 -14.308000 338.638000
85.234000 -14.333000 339.241000
85.576000 -14.326000 339.053000
86.065000 -14.342000 339.448000
86.480000 -14.346000 339.547000
86.964000 -14.362000 339.916000
87.447000 -14.377000 340.277000
87.813000 -14.373000 340.179000
88.332000 -14.394000 340.673000
88.634000 -14.380000 340.334000
89.224000 -14.412000 341.093000
89.622000 -14.413000 341.118000
90.185000 -14.440000 341.767000
90.446000 -14.419000 341.272000
91.100000 -14.461000 342.256000
92.233000 -14.454000 342.085000
92.861000 -14.490000 342.954000
93.106000 -14.467000 342.407000
93.740000 -14.505000 343.290000
94.136000 -14.505000 343.296000
94.656000 -14.524000 343.752000
95.012000 -14.518000 343.611000
95.552000 -14.540000 344.135000
95.962000 -14.543000 344.189000
96.430000 -14.553000 344.449000
96.857000 -14.558000 344.560000
97.322000 -14.569000 344.805000
97.888000 -14.594000 345.405000
98.186000 -14.579000 345.060000
98.772000 -14.607000 345.725000
99.027000 -14.586000 345.229000
99.714000 -14.629000 346.240000
101.839000 -14.649000 346.707000
102.500000 -14.686000 347.595000
102.764000 -14.667000 347.139000
103.392000 -14.700000 347.914000
103.742000 -14.693000 347.747000
104.280000 -14.712000 348.210000
104.742000 -14.721000 348.415000
105.158000 -14.723000 348.470000
105.653000 -14.737000 348.783000
106.152000 -14.750000 349.105000
106.684000 -14.768000 349.535000
107.034000 -14.761000 349.368000
107.636000 -14.789000 350.022000
107.907000 -14.771000 349.598000
108.574000 -14.807000 350.453000
108.802000 -14.784000 349.893000
110.789000 -14.834000 351.097000
111.482000 -14.873000 352.012000
111.741000 -14.854000 351.557000
112.355000 -14.882000 352.216000
112.663000 -14.869000 351.914000
113.251000 -14.893000 352.488000
113.753000 -14.906000 352.788000
114.151000 -14.905000 352.767000
114.699000 -14.923000 353.205000
115.125000 -14.926000 353.270000
115.695000 -14.947000 353.772000
116.070000 -14.943000 353.677000
116.733000 -14.976000 354.456000
116.983000 -14.956000 353.981000
117.731000 -15.000000 355.011000
117.907000 -14.970000 354.314000
118.719000 -15.022000 355.527000
118.924000 -14.996000 354.921000
119.667000 -15.038000 355.919000
119.991000 -15.027000 355.667000
120.627000 -15.056000 356.342000
121.002000 -15.052000 356.239000
121.538000 -15.067000 356.612000
121.947000 -15.067000 356.610000
122.472000 -15.082000 356.948000
123.028000 -15.099000 357.371000
123.376000 -15.092000 357.193000
124.001000 -15.118000 357.811000
124.470000 -15.125000 357.978000
125.059000 -15.147000 358.489000
125.397000 -15.138000 358.277000
126.104000 -15.173000 359.119000
126.362000 -15.155000 358.682000
127.036000 -15.186000 359.425000
127.378000 -15.178000 359.225000
128.012000 -15.204000 359.848000
128.410000 -15.202000 359.804000
129.013000 -15.225000 360.336000
129.428000 -15.225000 360.338000
129.995000 -15.243000 360.765000
130.507000 -15.254000 361.033000
130.987000 -15.262000 361.216000
131.545000 -15.278000 361.608000
131.978000 -15.280000 361.656000
132.541000 -15.298000 362.061000
132.927000 -15.294000 361.979000
133.561000 -15.319000 362.572000
133.900000 -15.310000 362.363000
134.640000 -15.347000 363.236000
134.982000 -15.339000 363.035000
135.669000 -15.369000 363.759000
17.407000 -12.767000 310.604000
17.750000 -12.757000 310.369000
18.095000 -12.749000 310.176000
18.440000 -12.741000 309.984000
18.781000 -12.731000 309.741000
19.126000 -12.724000 309.557000
19.469000 -12.716000 309.358000
19.816000 -12.711000 309.245000
20.161000 -12.704000 309.079000
20.505000 -12.698000 308.923000
20.850000 -12.692000 308.774000
21.194000 -12.685000 308.615000
21.536000 -12.678000 308.442000
21.882000 -12.674000 308.335000
22.229000 -12.669000 308.231000
22.578000 -12.667000 308.164000
22.925000 -12.663000 308.074000
23.271000 -12.658000 307.967000
23.615000 -12.653000 307.843000
23.965000 -12.652000 307.803000
24.309000 -12.647000 307.686000
24.662000 -12.647000 307.681000
25.014000 -12.646000 307.654000
25.362000 -12.643000 307.594000
25.712000 -12.642000 307.557000
26.060000 -12.639000 307.501000
26.408000 -12.637000 307.440000
26.759000 -12.636000 307.417000
27.111000 -12.635000 307.402000
27.467000 -12.637000 307.434000
27.817000 -12.635000 307.406000
28.174000 -12.637000 307.442000
28.525000 -12.636000 307.421000
28.884000 -12.639000 307.492000
29.240000 -12.640000 307.520000
29.596000 -12.641000 307.552000
29.954000 -12.643000 307.596000
30.309000 -12.644000 307.616000
30.670000 -12.647000 307.701000
31.026000 -12.648000 307.721000
31.392000 -12.653000 307.843000
31.758000 -12.659000 307.969000
32.114000 -12.659000 307.990000
32.477000 -12.663000 308.083000
32.843000 -12.668000 308.197000
33.211000 -12.673000 308.321000
33.577000 -12.678000 308.437000
33.954000 -12.686000 308.644000
34.314000 -12.688000 308.694000
34.693000 -12.697000 308.909000
35.059000 -12.701000 309.012000
35.442000 -12.711000 309.254000
35.818000 -12.719000 309.437000
36.196000 -12.727000 309.633000
36.572000 -12.734000 309.805000
36.970000 -12.748000 310.157000
37.341000 -12.754000 310.282000
37.743000 -12.769000 310.658000
38.124000 -12.777000 310.853000
38.535000 -12.795000 311.290000
38.919000 -12.804000 311.509000
39.320000 -12.818000 311.849000
39.713000 -12.829000 312.127000
40.148000 -12.854000 312.722000
40.533000 -12.862000 312.923000
82.757000 -13.855000 337.087000
83.365000 -13.892000 337.982000
83.633000 -13.872000 337.498000
84.185000 -13.899000 338.159000
84.559000 -13.897000 338.102000
85.049000 -13.914000 338.505000
85.476000 -13.920000 338.658000
85.961000 -13.935000 339.036000
86.349000 -13.935000 339.031000
86.799000 -13.945000 339.269000
87.264000 -13.957000 339.562000
87.708000 -13.966000 339.773000
88.231000 -13.987000 340.283000
88.550000 -13.976000 340.010000
89.126000 -14.005000 340.719000
89.404000 -13.987000 340.288000
90.028000 -14.023000 341.171000
92.115000 -14.043000 341.648000
92.774000 -14.083000 342.633000
93.021000 -14.061000 342.094000
93.637000 -14.095000 342.911000
93.913000 -14.077000 342.482000
94.483000 -14.104000 343.125000
94.893000 -14.106000 343.180000
95.390000 -14.121000 343.553000
95.827000 -14.127000 343.704000
96.285000 -14.137000 343.930000
96.748000 -14.147000 344.172000
97.144000 -14.147000 344.176000
97.699000 -14.170000 344.741000
98.101000 -14.171000 344.763000
98.703000 -14.201000 345.484000
98.962000 -14.181000 345.002000
99.594000 -14.214000 345.823000
101.724000 -14.235000 346.315000
102.380000 -14.271000 347.189000
102.674000 -14.256000 346.835000
103.290000 -14.286000 347.570000
103.613000 -14.276000 347.314000
104.192000 -14.300000 347.914000
104.645000 -14.308000 348.093000
105.048000 -14.308000 348.106000
105.575000 -14.325000 348.524000
106.003000 -14.329000 348.617000
106.532000 -14.347000 349.038000
106.943000 -14.348000 349.072000
107.555000 -14.376000 349.758000
107.824000 -14.359000 349.328000
108.485000 -14.393000 350.169000
108.694000 -14.367000 349.546000
110.693000 -14.419000 350.793000
111.395000 -14.458000 351.737000
111.682000 -14.442000 351.370000
112.297000 -14.470000 352.034000
112.609000 -14.458000 351.745000
113.177000 -14.479000 352.256000
113.665000 -14.490000 352.515000
114.080000 -14.491000 352.546000
114.641000 -14.511000 353.029000
115.027000 -14.508000 352.967000
115.600000 -14.529000 353.480000
115.991000 -14.527000 353.436000
116.670000 -14.561000 354.264000
116.913000 -14.541000 353.769000
117.644000 -14.581000 354.750000
117.815000 -14.552000 354.038000
118.637000 -14.603000 355.282000
118.847000 -14.579000 354.693000
119.565000 -14.617000 355.617000
119.923000 -14.611000 355.466000
120.557000 -14.638000 356.133000
120.955000 -14.637000 356.103000
121.497000 -14.653000 356.491000
121.874000 -14.649000 356.397000
122.411000 -14.664000 356.769000
122.941000 -14.679000 357.119000
123.302000 -14.673000 356.978000
123.921000 -14.698000 357.581000
124.239000 -14.687000 357.315000
124.902000 -14.717000 358.040000
125.284000 -14.713000 357.956000
126.015000 -14.751000 358.867000
126.287000 -14.734000 358.469000
126.982000 -14.767000 359.271000
127.288000 -14.755000 358.971000
127.912000 -14.779000 359.565000
128.336000 -14.781000 359.598000
128.912000 -14.799000 360.053000
129.323000 -14.799000 360.045000
129.869000 -14.814000 360.414000
130.366000 -14.824000 360.645000
130.861000 -14.833000 360.866000
131.422000 -14.849000 361.271000
131.856000 -14.852000 361.323000
132.437000 -14.870000 361.777000
132.824000 -14.867000 361.698000
133.467000 -14.892000 362.316000
133.792000 -14.882000 362.071000
134.521000 -14.917000 362.916000
134.840000 -14.906000 362.652000
135.559000 -14.940000 363.465000
17.396000 -12.402000 310.406000
17.742000 -12.395000 310.222000
18.086000 -12.387000 310.012000
18.431000 -12.379000 309.835000
18.774000 -12.371000 309.620000
19.117000 -12.363000 309.413000
19.459000 -12.355000 309.212000
19.808000 -12.351000 309.115000
20.152000 -12.344000 308.938000
20.494000 -12.336000 308.750000
20.839000 -12.330000 308.606000
21.185000 -12.326000 308.491000
21.529000 -12.320000 308.337000
21.875000 -12.315000 308.228000
22.220000 -12.311000 308.110000
22.569000 -12.308000 308.035000
22.915000 -12.304000 307.942000
23.262000 -12.300000 307.845000
23.603000 -12.294000 307.691000
23.956000 -12.294000 307.688000
24.300000 -12.289000 307.568000
24.652000 -12.288000 307.545000
25.003000 -12.287000 307.528000
25.350000 -12.284000 307.455000
25.701000 -12.283000 307.423000
26.051000 -12.282000 307.394000
26.395000 -12.278000 307.288000
26.750000 -12.279000 307.310000
27.103000 -12.279000 307.310000
27.458000 -12.279000 307.333000
27.807000 -12.278000 307.293000
28.161000 -12.278000 307.303000
28.513000 -12.278000 307.301000
28.869000 -12.279000 307.325000
29.228000 -12.282000 307.395000
29.584000 -12.283000 307.424000
29.942000 -12.285000 307.474000
30.298000 -12.286000 307.504000
30.657000 -12.289000 307.564000
31.016000 -12.291000 307.624000
31.382000 -12.296000 307.747000
31.741000 -12.298000 307.800000
32.100000 -12.301000 307.859000
32.468000 -12.306000 307.990000
32.831000 -12.309000 308.080000
33.195000 -12.313000 308.179000
33.567000 -12.320000 308.340000
33.936000 -12.325000 308.478000
34.301000 -12.329000 308.575000
34.676000 -12.336000 308.760000
35.044000 -12.341000 308.878000
35.422000 -12.349000 309.084000
35.803000 -12.358000 309.306000
36.180000 -12.366000 309.491000
36.554000 -12.372000 309.652000
36.939000 -12.382000 309.898000
37.321000 -12.391000 310.116000
37.717000 -12.404000 310.445000
38.103000 -12.413000 310.685000
38.510000 -12.430000 311.093000
38.892000 -12.438000 311.293000
39.300000 -12.454000 311.690000
39.675000 -12.459000 311.828000
40.102000 -12.480000 312.360000
40.508000 -12.495000 312.725000
40.951000 -12.521000 313.367000
41.348000 -12.532000 313.649000
82.855000 -13.484000 337.488000
83.374000 -13.506000 338.020000
86.755000 -13.549000 339.098000
87.215000 -13.560000 339.371000
87.633000 -13.564000 339.481000
88.144000 -13.583000 339.949000
88.524000 -13.581000 339.909000
89.096000 -13.609000 340.604000
89.358000 -13.589000 340.114000
89.978000 -13.624000 340.982000
92.033000 -13.638000 341.342000
92.743000 -13.685000 342.518000
92.988000 -13.663000 341.971000
93.593000 -13.695000 342.749000
93.865000 -13.677000 342.308000
94.450000 -13.705000 343.005000
94.826000 -13.702000 342.939000
95.283000 -13.711000 343.168000
95.758000 -13.723000 343.457000
96.208000 -13.731000 343.658000
96.708000 -13.746000 344.031000
97.089000 -13.744000 343.982000
97.612000 -13.762000 344.435000
97.992000 -13.760000 344.380000
98.618000 -13.792000 345.187000
98.912000 -13.778000 344.829000
99.546000 -13.811000 345.656000
99.757000 -13.785000 345.014000
101.618000 -13.823000 345.953000
102.270000 -13.857000 346.817000
102.575000 -13.844000 346.501000
103.189000 -13.874000 347.230000
103.532000 -13.866000 347.041000
104.101000 -13.889000 347.613000
104.478000 -13.886000 347.538000
104.988000 -13.901000 347.905000
105.505000 -13.916000 348.293000
105.848000 -13.909000 348.106000
106.432000 -13.933000 348.710000
106.778000 -13.926000 348.531000
107.390000 -13.953000 349.221000
107.714000 -13.943000 348.970000
108.375000 -13.977000 349.813000
108.581000 -13.952000 349.184000
110.527000 -13.995000 350.266000
111.168000 -14.025000 351.020000
111.488000 -14.015000 350.761000
112.067000 -14.037000 351.311000
112.489000 -14.039000 351.372000
113.070000 -14.061000 351.922000
113.444000 -14.057000 351.829000
113.948000 -14.070000 352.139000
114.466000 -14.084000 352.490000
114.843000 -14.080000 352.403000
115.483000 -14.109000 353.122000
115.797000 -14.098000 352.843000
116.481000 -14.132000 353.692000
116.747000 -14.115000 353.268000
117.454000 -14.151000 354.177000
117.670000 -14.128000 353.603000
118.430000 -14.171000 354.663000
118.703000 -14.154000 354.261000
119.344000 -14.182000 354.958000
119.643000 -14.169000 354.637000
120.304000 -14.199000 355.386000
120.705000 -14.199000 355.366000
121.248000 -14.214000 355.762000
121.751000 -14.226000 356.039000
122.244000 -14.235000 356.284000
122.735000 -14.245000 356.521000
123.198000 -14.251000 356.676000
123.776000 -14.270000 357.162000
124.098000 -14.260000 356.908000
124.739000 -14.287000 357.573000
125.007000 -14.270000 357.164000
125.719000 -14.305000 358.025000
126.058000 -14.297000 357.820000
126.806000 -14.335000 358.773000
127.109000 -14.323000 358.466000
127.747000 -14.348000 359.102000
128.118000 -14.343000 358.986000
128.714000 -14.364000 359.500000
129.179000 -14.370000 359.645000
129.646000 -14.376000 359.794000
130.130000 -14.383000 359.992000
130.672000 -14.398000 360.347000
131.244000 -14.415000 360.782000
131.642000 -14.413000 360.736000
132.268000 -14.436000 361.314000
132.652000 -14.433000 361.229000
133.269000 -14.455000 361.778000
133.610000 -14.447000 361.577000
134.314000 -14.478000 362.356000
134.671000 -14.472000 362.198000
135.314000 -14.496000 362.806000
17.046000 -12.051000 310.528000
17.390000 -12.042000 310.297000
17.734000 -12.034000 310.089000
18.079000 -12.026000 309.897000
18.424000 -12.019000 309.716000
18.767000 -12.011000 309.513000
19.110000 -12.003000 309.312000
19.454000 -11.996000 309.125000
19.799000 -11.990000 308.979000
20.143000 -11.984000 308.814000
20.486000 -11.977000 308.634000
20.830000 -11.971000 308.475000
21.179000 -11.968000 308.397000
21.521000 -11.961000 308.222000
21.868000 -11.957000 308.125000
22.213000 -11.953000 308.008000
22.560000 -11.949000 307.915000
22.907000 -11.946000 307.830000
23.255000 -11.943000 307.757000
23.597000 -11.937000 307.606000
23.947000 -11.936000 307.573000
24.292000 -11.932000 307.467000
24.642000 -11.930000 307.424000
24.993000 -11.929000 307.397000
25.340000 -11.927000 307.331000
25.687000 -11.924000 307.263000
26.042000 -11.925000 307.285000
26.386000 -11.921000 307.181000
26.741000 -11.922000 307.206000
27.092000 -11.921000 307.183000
27.445000 -11.921000 307.191000
27.795000 -11.920000 307.155000
28.149000 -11.920000 307.174000
28.504000 -11.922000 307.203000
28.857000 -11.921000 307.197000
29.217000 -11.924000 307.277000
29.572000 -11.925000 307.305000
29.927000 -11.926000 307.326000
30.286000 -11.929000 307.387000
30.641000 -11.929000 307.405000
31.006000 -11.934000 307.529000
31.368000 -11.937000 307.612000
31.727000 -11.940000 307.667000
32.086000 -11.942000 307.720000
32.457000 -11.948000 307.893000
32.817000 -11.951000 307.950000
33.182000 -11.955000 308.055000
33.553000 -11.961000 308.216000
33.921000 -11.966000 308.343000
34.289000 -11.971000 308.472000
34.663000 -11.978000 308.647000
35.035000 -11.983000 308.797000
35.414000 -11.992000 309.012000
35.785000 -11.997000 309.153000
36.169000 -12.007000 309.397000
36.544000 -12.013000 309.564000
36.929000 -12.023000 309.817000
37.304000 -12.029000 309.978000
37.697000 -12.041000 310.283000
38.081000 -12.050000 310.506000
38.482000 -12.064000 310.864000
38.870000 -12.073000 311.112000
39.268000 -12.086000 311.433000
39.651000 -12.093000 311.633000
40.083000 -12.116000 312.214000
40.486000 -12.129000 312.561000
40.912000 -12.149000 313.069000
41.313000 -12.162000 313.389000
60.445000 -12.783000 329.401000
60.833000 -12.785000 329.452000
61.210000 -12.785000 329.444000
61.606000 -12.788000 329.542000
61.969000 -12.785000 329.461000
62.358000 -12.788000 329.518000
62.726000 -12.785000 329.461000
63.109000 -12.786000 329.488000
86.645000 -13.143000 338.668000
87.117000 -13.155000 338.993000
87.477000 -13.151000 338.876000
87.993000 -13.170000 339.366000
88.342000 -13.164000 339.210000
88.881000 -13.186000 339.782000
89.275000 -13.186000 339.799000
89.851000 -13.214000 340.501000
91.898000 -13.227000 340.843000
92.521000 -13.260000 341.698000
92.819000 -13.247000 341.353000
93.401000 -13.274000 342.048000
93.773000 -13.271000 341.972000
94.339000 -13.295000 342.601000
94.668000 -13.286000 342.367000
95.199000 -13.305000 342.863000
95.612000 -13.308000 342.933000
96.065000 -13.316000 343.145000
96.577000 -13.333000 343.565000
96.974000 -13.333000 343.574000
97.517000 -13.353000 344.098000
97.826000 -13.342000 343.796000
98.410000 -13.367000 344.458000
98.692000 -13.352000 344.061000
99.479000 -13.405000 345.424000
99.689000 -13.380000 344.777000
101.473000 -13.406000 345.460000
102.143000 -13.442000 346.385000
102.438000 -13.429000 346.038000
103.046000 -13.456000 346.749000
103.455000 -13.458000 346.786000
103.971000 -13.473000 347.178000
104.395000 -13.476000 347.262000
104.911000 -13.491000 347.650000
105.321000 -13.493000 347.685000
105.775000 -13.500000 347.867000
106.357000 -13.523000 348.464000
106.654000 -13.510000 348.128000
107.280000 -13.538000 348.865000
107.559000 -13.523000 348.471000
108.268000 -13.562000 349.465000
110.433000 -13.581000 349.968000
111.090000 -13.612000 350.774000
111.375000 -13.598000 350.405000
111.967000 -13.621000 350.998000
112.426000 -13.628000 351.172000
112.926000 -13.640000 351.475000
113.392000 -13.647000 351.667000
113.887000 -13.658000 351.949000
114.325000 -13.662000 352.054000
114.778000 -13.668000 352.204000
115.409000 -13.695000 352.896000
115.707000 -13.682000 352.571000
116.386000 -13.714000 353.401000
116.657000 -13.699000 352.994000
117.375000 -13.735000 353.937000
117.611000 -13.715000 353.424000
118.360000 -13.755000 354.453000
118.634000 -13.740000 354.058000
119.262000 -13.765000 354.714000
119.572000 -13.754000 354.426000
120.233000 -13.783000 355.177000
120.590000 -13.777000 355.027000
121.151000 -13.795000 355.477000
121.681000 -13.809000 355.833000
122.138000 -13.814000 355.974000
122.668000 -13.828000 356.325000
123.154000 -13.837000 356.549000
123.708000 -13.853000 356.965000
124.060000 -13.846000 356.798000
124.693000 -13.871000 357.439000
124.957000 -13.855000 357.022000
125.646000 -13.886000 357.816000
125.927000 -13.871000 357.448000
126.602000 -13.900000 358.196000
126.994000 -13.898000 358.143000
127.666000 -13.927000 358.873000
127.995000 -13.918000 358.642000
128.626000 -13.941000 359.255000
129.092000 -13.947000 359.402000
129.558000 -13.953000 359.551000
130.065000 -13.963000 359.811000
130.547000 -13.970000 360.000000
131.125000 -13.988000 360.454000
131.550000 -13.989000 360.485000
132.127000 -14.007000 360.930000
132.543000 -14.007000 360.934000
133.179000 -14.030000 361.535000
133.498000 -14.020000 361.275000
134.199000 -14.050000 362.046000
134.553000 -14.043000 361.881000
135.187000 -14.066000 362.466000
17.042000 -11.691000 310.460000
17.384000 -11.682000 310.201000
17.728000 -11.674000 309.987000
18.071000 -11.665000 309.753000
18.414000 -11.657000 309.546000
18.761000 -11.652000 309.401000
19.104000 -11.644000 309.208000
19.446000 -11.636000 308.993000
19.789000 -11.630000 308.819000
20.134000 -11.624000 308.674000
20.479000 -11.619000 308.530000
20.820000 -11.611000 308.324000
21.170000 -11.609000 308.274000
21.513000 -11.603000 308.117000
21.859000 -11.599000 308.011000
22.206000 -11.595000 307.912000
22.553000 -11.592000 307.817000
22.897000 -11.587000 307.697000
23.247000 -11.586000 307.654000
23.590000 -11.581000 307.517000
23.939000 -11.579000 307.462000
24.284000 -11.575000 307.358000
24.631000 -11.572000 307.285000
24.981000 -11.571000 307.253000
25.330000 -11.569000 307.206000
25.677000 -11.566000 307.141000
26.034000 -11.568000 307.186000
26.377000 -11.564000 307.077000
26.732000 -11.565000 307.100000
27.080000 -11.563000 307.056000
27.433000 -11.563000 307.053000
27.780000 -11.561000 306.993000
28.136000 -11.562000 307.029000
28.494000 -11.565000 307.094000
28.847000 -11.565000 307.096000
29.206000 -11.567000 307.165000
29.561000 -11.568000 307.183000
29.916000 -11.569000 307.212000
30.275000 -11.571000 307.271000
30.630000 -11.572000 307.295000
30.992000 -11.576000 307.388000
31.348000 -11.577000 307.418000
31.715000 -11.582000 307.548000
32.072000 -11.583000 307.589000
32.441000 -11.589000 307.737000
32.802000 -11.592000 307.807000
33.173000 -11.598000 307.972000
33.533000 -11.600000 308.030000
33.905000 -11.606000 308.195000
34.271000 -11.610000 308.303000
34.646000 -11.617000 308.491000
35.020000 -11.624000 308.663000
35.394000 -11.630000 308.838000
35.770000 -11.637000 309.023000
36.158000 -11.648000 309.308000
36.531000 -11.654000 309.458000
36.912000 -11.662000 309.669000
37.284000 -11.667000 309.812000
37.685000 -11.681000 310.184000
38.067000 -11.689000 310.393000
38.463000 -11.701000 310.715000
38.843000 -11.708000 310.899000
39.244000 -11.721000 311.245000
39.635000 -11.731000 311.509000
40.055000 -11.749000 311.996000
40.465000 -11.764000 312.395000
40.886000 -11.782000 312.871000
41.295000 -11.797000 313.250000
41.722000 -11.815000 313.752000
50.165000 -12.388000 328.959000
50.527000 -12.384000 328.857000
50.896000 -12.382000 328.799000
51.260000 -12.379000 328.712000
51.623000 -12.375000 328.618000
52.006000 -12.377000 328.655000
52.397000 -12.380000 328.744000
52.759000 -12.376000 328.643000
53.133000 -12.376000 328.627000
53.516000 -12.377000 328.662000
53.891000 -12.376000 328.648000
54.270000 -12.377000 328.656000
54.657000 -12.379000 328.713000
55.028000 -12.377000 328.673000
55.407000 -12.378000 328.686000
55.783000 -12.377000 328.678000
56.158000 -12.377000 328.663000
56.530000 -12.376000 328.633000
56.934000 -12.381000 328.782000
57.309000 -12.381000 328.771000
57.687000 -12.381000 328.771000
58.056000 -12.379000 328.721000
58.444000 -12.381000 328.784000
58.817000 -12.380000 328.757000
59.210000 -12.384000 328.842000
59.582000 -12.383000 328.815000
59.952000 -12.381000 328.771000
60.323000 -12.380000 328.734000
60.707000 -12.381000 328.771000
61.085000 -12.381000 328.776000
61.476000 -12.384000 328.846000
61.852000 -12.383000 328.835000
62.234000 -12.384000 328.859000
62.614000 -12.385000 328.874000
62.985000 -12.384000 328.838000
63.367000 -12.384000 328.862000
91.860000 -12.830000 340.701000
92.471000 -12.861000 341.513000
92.731000 -12.843000 341.029000
93.328000 -12.871000 341.779000
93.747000 -12.875000 341.876000
94.262000 -12.891000 342.321000
94.625000 -12.887000 342.211000
95.155000 -12.906000 342.706000
95.549000 -12.906000 342.709000
96.016000 -12.916000 342.969000
96.499000 -12.928000 343.287000
96.906000 -12.929000 343.332000
97.474000 -12.952000 343.946000
97.777000 -12.940000 343.623000
98.363000 -12.965000 344.292000
98.613000 -12.946000 343.785000
99.328000 -12.988000 344.898000
99.610000 -12.973000 344.504000
101.389000 -12.999000 345.174000
102.061000 -13.034000 346.109000
102.353000 -13.020000 345.752000
102.942000 -13.045000 346.400000
103.318000 -13.042000 346.325000
103.843000 -13.058000 346.752000
104.311000 -13.067000 346.983000
104.715000 -13.068000 347.002000
105.205000 -13.079000 347.305000
105.703000 -13.091000 347.628000
106.242000 -13.108000 348.086000
106.564000 -13.099000 347.835000
107.182000 -13.126000 348.543000
107.436000 -13.108000 348.071000
108.141000 -13.145000 349.058000
110.299000 -13.163000 349.544000
110.982000 -13.197000 350.434000
111.268000 -13.183000 350.067000
111.866000 -13.206000 350.683000
112.205000 -13.199000 350.484000
112.766000 -13.217000 350.976000
113.286000 -13.231000 351.338000
113.643000 -13.225000 351.195000
114.193000 -13.243000 351.648000
114.615000 -13.245000 351.703000
115.258000 -13.272000 352.434000
115.566000 -13.261000 352.140000
116.239000 -13.292000 352.956000
116.458000 -13.271000 352.393000
117.205000 -13.309000 353.424000
117.390000 -13.284000 352.762000
118.172000 -13.327000 353.891000
118.412000 -13.308000 353.393000
119.097000 -13.339000 354.223000
119.427000 -13.331000 353.998000
120.046000 -13.355000 354.624000
120.436000 -13.353000 354.572000
120.991000 -13.369000 355.007000
121.430000 -13.372000 355.099000
121.927000 -13.382000 355.358000
122.510000 -13.401000 355.867000
122.849000 -13.394000 355.666000
123.480000 -13.418000 356.309000
123.893000 -13.418000 356.320000
124.486000 -13.438000 356.846000
124.831000 -13.431000 356.662000
125.521000 -13.461000 357.459000
125.756000 -13.443000 356.962000
126.436000 -13.471000 357.726000
126.750000 -13.461000 357.453000
127.424000 -13.489000 358.194000
127.856000 -13.491000 358.251000
128.431000 -13.508000 358.709000
128.853000 -13.509000 358.736000
129.397000 -13.523000 359.103000
129.900000 -13.533000 359.356000
130.354000 -13.537000 359.468000
130.903000 -13.551000 359.844000
131.343000 -13.554000 359.917000
131.926000 -13.571000 360.382000
132.313000 -13.569000 360.307000
133.029000 -13.600000 361.128000
133.340000 -13.589000 360.846000
133.996000 -13.613000 361.498000
134.361000 -13.608000 361.365000
135.004000 -13.631000 361.976000
17.036000 -11.331000 310.342000
17.377000 -11.321000 310.067000
17.722000 -11.314000 309.873000
18.064000 -11.305000 309.642000
18.407000 -11.297000 309.430000
18.753000 -11.292000 309.271000
19.097000 -11.285000 309.088000
19.438000 -11.277000 308.871000
19.782000 -11.271000 308.701000
20.126000 -11.265000 308.553000
20.472000 -11.261000 308.424000
20.812000 -11.253000 308.205000
21.160000 -11.250000 308.123000
21.504000 -11.244000 307.982000
21.850000 -11.240000 307.872000
22.196000 -11.237000 307.779000
22.543000 -11.234000 307.691000
22.887000 -11.229000 307.564000
23.237000 -11.228000 307.519000
23.581000 -11.223000 307.405000
23.928000 -11.221000 307.329000
24.276000 -11.218000 307.262000
24.624000 -11.216000 307.201000
24.973000 -11.214000 307.155000
25.322000 -11.213000 307.116000
25.669000 -11.210000 307.043000
26.024000 -11.211000 307.077000
26.369000 -11.208000 306.985000
26.722000 -11.208000 306.988000
27.072000 -11.207000 306.962000
27.424000 -11.207000 306.954000
27.772000 -11.205000 306.902000
28.124000 -11.205000 306.906000
28.481000 -11.207000 306.951000
28.838000 -11.209000 307.004000
29.195000 -11.210000 307.051000
29.551000 -11.212000 307.082000
29.905000 -11.212000 307.101000
30.262000 -11.214000 307.140000
30.618000 -11.215000 307.173000
30.981000 -11.219000 307.272000
31.336000 -11.219000 307.293000
31.706000 -11.226000 307.467000
32.060000 -11.226000 307.472000
32.431000 -11.232000 307.640000
32.792000 -11.235000 307.714000
33.162000 -11.240000 307.870000
33.517000 -11.241000 307.887000
33.893000 -11.248000 308.092000
34.254000 -11.251000 308.153000
34.629000 -11.258000 308.341000
35.000000 -11.263000 308.492000
35.374000 -11.269000 308.666000
35.756000 -11.278000 308.905000
36.147000 -11.289000 309.211000
36.515000 -11.293000 309.317000
36.895000 -11.301000 309.532000
37.267000 -11.306000 309.665000
37.669000 -11.320000 310.048000
38.044000 -11.326000 310.205000
38.451000 -11.341000 310.614000
38.822000 -11.345000 310.732000
39.226000 -11.359000 311.107000
39.619000 -11.369000 311.384000
40.032000 -11.384000 311.816000
40.438000 -11.398000 312.185000
40.858000 -11.415000 312.660000
41.268000 -11.429000 313.043000
41.686000 -11.445000 313.488000
49.646000 -11.976000 328.023000
50.019000 -11.975000 328.003000
50.398000 -11.976000 328.017000
50.772000 -11.975000 327.997000
51.149000 -11.975000 328.004000
51.518000 -11.974000 327.954000
51.893000 -11.973000 327.945000
52.274000 -11.974000 327.968000
52.648000 -11.974000 327.956000
53.021000 -11.973000 327.931000
53.381000 -11.969000 327.833000
53.776000 -11.973000 327.945000
54.145000 -11.972000 327.898000
54.544000 -11.977000 328.036000
54.911000 -11.974000 327.975000
55.299000 -11.977000 328.040000
55.668000 -11.975000 327.997000
56.054000 -11.977000 328.054000
56.416000 -11.974000 327.969000
56.813000 -11.978000 328.084000
57.190000 -11.978000 328.087000
57.575000 -11.980000 328.136000
57.949000 -11.980000 328.116000
58.333000 -11.981000 328.156000
58.709000 -11.981000 328.152000
59.092000 -11.982000 328.189000
59.482000 -11.985000 328.259000
59.854000 -11.984000 328.236000
60.229000 -11.983000 328.222000
60.610000 -11.984000 328.248000
60.984000 -11.984000 328.230000
61.373000 -11.986000 328.296000
61.747000 -11.985000 328.277000
62.136000 -11.988000 328.342000
62.504000 -11.986000 328.295000
62.893000 -11.988000 328.357000
