50.057000 21.243000 428.202000
50.572000 21.253000 428.404000
51.155000 21.291000 429.168000
51.709000 21.316000 429.672000
52.319000 21.364000 430.632000
52.865000 21.384000 431.052000
53.459000 21.424000 431.851000
54.058000 21.465000 432.676000
54.598000 21.482000 433.024000
55.161000 21.508000 433.536000
55.740000 21.539000 434.172000
56.335000 21.576000 434.914000
56.891000 21.598000 435.348000
57.506000 21.641000 436.220000
58.097000 21.675000 436.900000
58.677000 21.704000 437.484000
59.216000 21.717000 437.753000
59.864000 21.770000 438.820000
60.436000 21.794000 439.311000
61.088000 21.847000 440.379000
61.612000 21.853000 440.505000
62.271000 21.907000 441.594000
62.799000 21.915000 441.743000
63.471000 21.972000 442.892000
64.022000 21.986000 443.183000
64.707000 22.046000 444.397000
65.199000 22.040000 444.267000
65.932000 22.115000 445.779000
66.451000 22.117000 445.826000
67.164000 22.184000 447.167000
67.680000 22.184000 447.177000
68.392000 22.249000 448.479000
68.897000 22.246000 448.419000
69.657000 22.325000 450.003000
70.095000 22.299000 449.493000
70.851000 22.375000 451.023000
71.423000 22.392000 451.363000
72.159000 22.460000 452.733000
72.647000 22.450000 452.529000
73.394000 22.520000 453.940000
73.968000 22.536000 454.263000
74.704000 22.601000 455.569000
75.266000 22.612000 455.805000
75.974000 22.667000 456.912000
76.581000 22.692000 457.407000
77.260000 22.737000 458.319000
77.821000 22.747000 458.524000
78.550000 22.806000 459.708000
79.202000 22.842000 460.431000
79.906000 22.892000 461.442000
80.480000 22.905000 461.695000
81.222000 22.965000 462.904000
81.845000 22.990000 463.423000
82.501000 23.025000 464.118000
83.167000 23.062000 464.860000
83.840000 23.100000 465.636000
84.584000 23.157000 466.792000
85.215000 23.183000 467.314000
85.920000 23.229000 468.229000
86.511000 23.243000 468.519000
87.297000 23.309000 469.853000
87.926000 23.333000 470.332000
88.744000 23.406000 471.810000
89.216000 23.388000 471.443000
90.070000 23.470000 473.085000
90.627000 23.473000 473.154000
91.527000 23.565000 475.005000
92.010000 23.549000 474.686000
92.940000 23.647000 476.656000
93.385000 23.621000 476.135000
94.385000 23.735000 478.433000
-14.939000 19.312000 380.476000
-14.493000 19.301000 380.247000
-14.050000 19.292000 380.072000
-13.601000 19.274000 379.726000
-13.160000 19.267000 379.583000
-12.716000 19.254000 379.325000
-12.276000 19.247000 379.192000
-11.837000 19.241000 379.075000
-11.398000 19.235000 378.950000
-10.957000 19.225000 378.765000
-10.522000 19.225000 378.761000
-10.085000 19.221000 378.676000
-9.649000 19.217000 378.604000
-9.212000 19.214000 378.541000
-8.778000 19.214000 378.544000
-8.343000 19.214000 378.541000
-7.907000 19.211000 378.485000
-7.472000 19.211000 378.474000
-7.038000 19.211000 378.490000
-6.604000 19.213000 378.525000
-6.170000 19.215000 378.568000
-5.737000 19.220000 378.668000
-5.303000 19.225000 378.767000
-4.870000 19.231000 378.869000
-4.436000 19.237000 379.001000
-4.003000 19.244000 379.132000
-3.569000 19.254000 379.337000
-3.135000 19.263000 379.503000
-2.700000 19.271000 379.656000
-2.266000 19.286000 379.953000
-1.830000 19.292000 380.075000
-1.395000 19.307000 380.367000
-0.959000 19.319000 380.618000
-0.522000 19.342000 381.066000
-0.085000 19.354000 381.300000
0.353000 19.377000 381.760000
8.014000 22.411000 441.532000
8.513000 22.393000 441.163000
9.008000 22.363000 440.579000
9.499000 22.329000 439.903000
9.988000 22.292000 439.187000
10.498000 22.303000 439.405000
10.988000 22.274000 438.833000
11.490000 22.270000 438.752000
11.987000 22.258000 438.514000
12.478000 22.236000 438.070000
12.971000 22.219000 437.745000
13.461000 22.198000 437.330000
13.951000 22.178000 436.942000
14.430000 22.144000 436.268000
14.909000 22.112000 435.626000
15.391000 22.085000 435.103000
15.874000 22.062000 434.655000
16.342000 22.020000 433.830000
16.810000 21.981000 433.044000
17.275000 21.940000 432.239000
17.751000 21.915000 431.753000
18.229000 21.893000 431.312000
18.693000 21.857000 430.609000
19.152000 21.816000 429.810000
19.615000 21.782000 429.137000
20.082000 21.754000 428.590000
20.550000 21.729000 428.095000
21.004000 21.690000 427.330000
21.462000 21.657000 426.662000
21.914000 21.620000 425.935000
22.378000 21.595000 425.453000
22.831000 21.562000 424.791000
23.290000 21.536000 424.280000
23.739000 21.501000 423.596000
24.195000 21.473000 423.051000
24.638000 21.437000 422.334000
25.098000 21.416000 421.914000
25.546000 21.385000 421.307000
25.994000 21.355000 420.727000
26.426000 21.314000 419.922000
26.870000 21.284000 419.315000
27.330000 21.267000 418.995000
27.808000 21.265000 418.945000
28.240000 21.228000 418.214000
28.761000 21.258000 418.815000
29.191000 21.221000 418.079000
29.726000 21.260000 418.848000
30.158000 21.226000 418.174000
30.663000 21.243000 418.515000
31.130000 21.234000 418.334000
31.618000 21.239000 418.430000
32.096000 21.237000 418.397000
32.560000 21.226000 418.189000
33.057000 21.237000 418.400000
33.526000 21.230000 418.254000
34.008000 21.231000 418.278000
34.498000 21.237000 418.401000
34.951000 21.220000 418.070000
35.469000 21.243000 418.522000
35.908000 21.218000 418.030000
36.433000 21.245000 418.551000
36.852000 21.209000 417.852000
37.392000 21.244000 418.528000
37.811000 21.209000 417.841000
38.335000 21.233000 418.325000
38.765000 21.206000 417.785000
39.272000 21.221000 418.073000
39.728000 21.208000 417.822000
40.241000 21.225000 418.167000
40.703000 21.216000 417.977000
41.240000 21.245000 418.559000
41.712000 21.241000 418.470000
42.305000 21.297000 419.586000
42.750000 21.279000 419.225000
43.348000 21.337000 420.359000
43.842000 21.342000 420.469000
44.455000 21.405000 421.701000
44.945000 21.408000 421.761000
45.563000 21.471000 422.997000
46.077000 21.484000 423.255000
46.645000 21.522000 424.003000
47.160000 21.535000 424.261000
47.754000 21.583000 425.207000
48.255000 21.588000 425.320000
48.859000 21.640000 426.329000
49.416000 21.669000 426.913000
50.027000 21.722000 427.947000
50.513000 21.719000 427.900000
51.117000 21.767000 428.842000
51.668000 21.792000 429.334000
52.247000 21.828000 430.040000
52.816000 21.859000 430.650000
53.414000 21.902000 431.489000
54.023000 21.947000 432.394000
54.524000 21.950000 432.434000
55.130000 21.993000 433.294000
55.701000 22.022000 433.864000
56.302000 22.062000 434.657000
56.841000 22.078000 434.965000
57.453000 22.121000 435.818000
58.007000 22.142000 436.219000
58.603000 22.178000 436.927000
59.172000 22.203000 437.426000
59.829000 22.261000 438.561000
60.354000 22.268000 438.714000
60.989000 22.316000 439.663000
61.550000 22.337000 440.064000
62.209000 22.392000 441.152000
62.733000 22.398000 441.278000
63.410000 22.459000 442.469000
63.978000 22.480000 442.877000
64.657000 22.539000 444.051000
65.115000 22.521000 443.700000
65.831000 22.592000 445.091000
66.387000 22.607000 445.395000
67.099000 22.675000 446.733000
67.611000 22.675000 446.724000
68.327000 22.743000 448.059000
68.830000 22.739000 447.978000
69.577000 22.815000 449.483000
70.056000 22.803000 449.244000
70.799000 22.876000 450.690000
71.342000 22.884000 450.851000
72.068000 22.951000 452.162000
72.563000 22.943000 452.006000
73.312000 23.015000 453.432000
73.875000 23.029000 453.692000
74.613000 23.096000 455.013000
75.188000 23.112000 455.334000
75.911000 23.173000 456.535000
76.498000 23.192000 456.913000
77.156000 23.232000 457.700000
77.759000 23.255000 458.161000
78.475000 23.312000 459.269000
79.134000 23.351000 460.038000
79.871000 23.412000 461.241000
80.377000 23.405000 461.107000
81.107000 23.463000 462.251000
81.767000 23.500000 462.979000
82.410000 23.532000 463.608000
83.068000 23.567000 464.309000
83.751000 23.610000 465.143000
84.495000 23.668000 466.299000
85.079000 23.682000 466.567000
85.814000 23.737000 467.651000
86.421000 23.756000 468.029000
87.212000 23.826000 469.395000
87.744000 23.824000 469.358000
88.637000 23.919000 471.238000
89.149000 23.912000 471.089000
89.982000 23.989000 472.619000
90.514000 23.987000 472.566000
91.425000 24.084000 474.477000
91.885000 24.061000 474.041000
92.852000 24.171000 476.208000
93.272000 24.139000 475.562000
94.249000 24.249000 477.744000
-15.365000 19.735000 380.207000
-14.914000 19.717000 379.850000
-14.468000 19.702000 379.570000
-14.028000 19.697000 379.478000
-13.582000 19.682000 379.187000
-13.141000 19.673000 379.012000
-12.698000 19.661000 378.785000
-12.259000 19.656000 378.675000
-11.818000 19.645000 378.475000
-11.384000 19.645000 378.479000
-10.943000 19.635000 378.277000
-10.507000 19.632000 378.221000
-10.071000 19.627000 378.131000
-9.634000 19.623000 378.049000
-9.199000 19.621000 378.011000
-8.765000 19.621000 378.004000
-8.332000 19.622000 378.021000
-7.898000 19.622000 378.026000
-7.463000 19.620000 377.991000
-7.029000 19.621000 378.017000
-6.595000 19.622000 378.018000
-6.162000 19.624000 378.074000
-5.729000 19.627000 378.128000
-5.296000 19.633000 378.241000
-4.863000 19.638000 378.335000
-4.430000 19.645000 378.469000
-3.997000 19.654000 378.636000
-3.564000 19.660000 378.750000
-3.130000 19.668000 378.921000
-2.697000 19.681000 379.154000
-2.262000 19.690000 379.336000
-1.828000 19.698000 379.487000
-1.393000 19.717000 379.852000
-0.958000 19.732000 380.136000
-0.522000 19.745000 380.388000
-0.085000 19.758000 380.647000
0.353000 19.782000 381.114000
0.791000 19.792000 381.295000
1.231000 19.824000 381.912000
8.509000 22.888000 440.945000
9.007000 22.866000 440.532000
9.502000 22.839000 440.012000
10.001000 22.826000 439.744000
10.504000 22.823000 439.687000
10.994000 22.790000 439.059000
11.496000 22.786000 438.989000
11.989000 22.765000 438.569000
12.478000 22.740000 438.088000
12.968000 22.716000 437.626000
13.456000 22.692000 437.169000
13.941000 22.663000 436.621000
14.421000 22.630000 435.984000
14.898000 22.594000 435.286000
15.372000 22.557000 434.574000
15.852000 22.530000 434.042000
16.328000 22.499000 433.460000
16.798000 22.462000 432.738000
17.263000 22.421000 431.947000
17.728000 22.382000 431.195000
18.202000 22.355000 430.686000
18.679000 22.335000 430.286000
19.138000 22.294000 429.500000
19.600000 22.258000 428.802000
20.058000 22.220000 428.072000
20.531000 22.200000 427.696000
20.990000 22.166000 427.038000
21.448000 22.132000 426.388000
21.898000 22.092000 425.618000
22.360000 22.066000 425.110000
22.814000 22.033000 424.473000
23.273000 22.006000 423.964000
23.720000 21.970000 423.258000
24.176000 21.942000 422.722000
24.617000 21.903000 421.974000
25.068000 21.873000 421.399000
25.518000 21.844000 420.840000
25.987000 21.833000 420.615000
26.425000 21.795000 419.892000
26.908000 21.796000 419.913000
27.361000 21.773000 419.464000
27.841000 21.771000 419.437000
28.296000 21.751000 419.039000
28.799000 21.768000 419.361000
29.251000 21.745000 418.935000
29.768000 21.772000 419.442000
30.209000 21.743000 418.888000
30.731000 21.772000 419.439000
31.178000 21.748000 418.977000
31.699000 21.775000 419.506000
32.135000 21.744000 418.914000
32.659000 21.773000 419.467000
33.099000 21.745000 418.932000
33.616000 21.769000 419.388000
34.063000 21.747000 418.962000
34.571000 21.763000 419.279000
35.026000 21.747000 418.965000
35.526000 21.759000 419.188000
36.006000 21.758000 419.177000
36.479000 21.753000 419.079000
36.985000 21.768000 419.365000
37.435000 21.749000 419.010000
37.891000 21.735000 418.734000
38.396000 21.748000 418.993000
38.839000 21.727000 418.581000
39.360000 21.750000 419.015000
39.804000 21.729000 418.623000
40.323000 21.750000 419.022000
40.762000 21.727000 418.589000
41.316000 21.766000 419.336000
41.739000 21.735000 418.744000
42.311000 21.783000 419.652000
42.745000 21.758000 419.184000
43.326000 21.808000 420.146000
43.808000 21.808000 420.139000
44.401000 21.863000 421.195000
44.912000 21.876000 421.447000
45.525000 21.938000 422.647000
46.002000 21.934000 422.571000
46.602000 21.988000 423.615000
47.133000 22.009000 424.010000
47.716000 22.054000 424.873000
48.227000 22.064000 425.071000
48.817000 22.110000 425.965000
49.356000 22.133000 426.395000
49.961000 22.184000 427.382000
50.479000 22.196000 427.615000
51.092000 22.249000 428.633000
51.637000 22.272000 429.078000
52.189000 22.297000 429.564000
52.770000 22.334000 430.281000
53.346000 22.369000 430.940000
53.910000 22.397000 431.490000
54.481000 22.428000 432.088000
55.100000 22.479000 433.061000
55.660000 22.504000 433.547000
56.230000 22.533000 434.101000
56.792000 22.558000 434.588000
57.413000 22.606000 435.513000
57.946000 22.619000 435.762000
58.573000 22.668000 436.709000
59.139000 22.693000 437.187000
59.793000 22.751000 438.299000
60.279000 22.744000 438.171000
60.921000 22.796000 439.171000
61.499000 22.823000 439.697000
62.161000 22.881000 440.815000
62.690000 22.890000 440.978000
63.368000 22.952000 442.174000
63.912000 22.965000 442.423000
64.604000 23.030000 443.688000
65.082000 23.019000 443.472000
65.796000 23.091000 444.860000
66.349000 23.106000 445.141000
67.048000 23.171000 446.390000
67.545000 23.165000 446.290000
68.285000 23.243000 447.778000
68.770000 23.233000 447.590000
69.514000 23.310000 449.079000
70.018000 23.306000 448.999000
70.763000 23.382000 450.465000
71.242000 23.369000 450.223000
71.994000 23.446000 451.694000
72.522000 23.449000 451.751000
73.264000 23.521000 453.134000
73.803000 23.526000 453.248000
74.531000 23.592000 454.515000
75.125000 23.615000 454.948000
75.849000 23.678000 456.165000
76.438000 23.698000 456.552000
77.105000 23.742000 457.403000
77.723000 23.770000 457.946000
78.435000 23.827000 459.037000
79.075000 23.861000 459.693000
79.771000 23.911000 460.664000
80.326000 23.919000 460.814000
81.062000 23.980000 461.990000
81.726000 24.020000 462.747000
82.365000 24.051000 463.354000
83.029000 24.089000 464.089000
83.689000 24.126000 464.798000
84.403000 24.177000 465.789000
85.010000 24.198000 466.186000
85.770000 24.262000 467.414000
86.382000 24.283000 467.821000
87.160000 24.350000 469.116000
87.647000 24.336000 468.838000
88.545000 24.435000 470.749000
89.084000 24.434000 470.741000
89.935000 24.519000 472.376000
90.424000 24.505000 472.093000
91.328000 24.602000 473.974000
91.801000 24.583000 473.605000
92.779000 24.699000 475.831000
93.211000 24.669000 475.250000
94.164000 24.776000 477.313000
94.639000 24.757000 476.947000
-15.340000 20.140000 379.601000
-14.897000 20.129000 379.399000
-14.448000 20.111000 379.057000
-14.006000 20.101000 378.883000
-13.563000 20.089000 378.647000
-13.122000 20.080000 378.472000
-12.678000 20.066000 378.208000
-12.244000 20.065000 378.195000
-11.803000 20.053000 377.974000
-11.368000 20.052000 377.952000
-10.930000 20.044000 377.807000
-10.493000 20.040000 377.717000
-10.057000 20.035000 377.623000
-9.623000 20.033000 377.591000
-9.186000 20.026000 377.460000
-8.755000 20.030000 377.543000
-8.319000 20.026000 377.461000
-7.887000 20.030000 377.529000
-7.452000 20.026000 377.453000
-7.020000 20.029000 377.514000
-6.587000 20.030000 377.538000
-6.154000 20.031000 377.552000
-5.722000 20.037000 377.668000
-5.289000 20.039000 377.708000
-4.857000 20.049000 377.897000
-4.425000 20.054000 377.989000
-3.992000 20.064000 378.169000
-3.558000 20.065000 378.197000
-3.126000 20.078000 378.439000
-2.692000 20.082000 378.510000
-2.259000 20.096000 378.774000
-1.825000 20.104000 378.936000
-1.391000 20.124000 379.299000
-0.956000 20.134000 379.487000
-0.521000 20.150000 379.796000
-0.085000 20.163000 380.045000
0.352000 20.184000 380.429000
0.789000 20.198000 380.711000
1.228000 20.225000 381.217000
1.667000 20.237000 381.446000
9.009000 23.377000 440.630000
9.508000 23.359000 440.283000
10.017000 23.367000 440.431000
10.510000 23.340000 439.916000
10.998000 23.302000 439.216000
11.500000 23.299000 439.142000
11.989000 23.269000 438.590000
12.476000 23.237000 437.987000
12.962000 23.208000 437.430000
13.448000 23.179000 436.886000
13.930000 23.147000 436.277000
14.410000 23.113000 435.642000
14.887000 23.077000 434.958000
15.360000 23.038000 434.226000
15.833000 23.001000 433.535000
16.309000 22.970000 432.950000
16.787000 22.943000 432.441000
17.251000 22.901000 431.642000
17.716000 22.861000 430.889000
18.178000 22.819000 430.111000
18.657000 22.802000 429.774000
19.125000 22.771000 429.194000
19.586000 22.735000 428.514000
20.042000 22.693000 427.735000
20.508000 22.666000 427.213000
20.972000 22.637000 426.679000
21.434000 22.608000 426.121000
21.886000 22.569000 425.395000
22.345000 22.539000 424.822000
22.798000 22.505000 424.179000
23.258000 22.479000 423.695000
23.706000 22.442000 422.994000
24.161000 22.413000 422.460000
24.604000 22.375000 421.741000
25.056000 22.347000 421.207000
25.495000 22.308000 420.467000
25.988000 22.316000 420.627000
26.428000 22.280000 419.948000
26.947000 22.310000 420.514000
27.381000 22.271000 419.775000
27.907000 22.306000 420.432000
28.343000 22.269000 419.735000
28.849000 22.288000 420.089000
29.316000 22.276000 419.867000
29.814000 22.288000 420.097000
30.276000 22.273000 419.815000
30.768000 22.280000 419.952000
31.228000 22.264000 419.648000
31.730000 22.278000 419.911000
32.166000 22.246000 419.312000
32.693000 22.277000 419.896000
33.133000 22.249000 419.364000
33.657000 22.278000 419.901000
34.108000 22.257000 419.506000
34.632000 22.284000 420.021000
35.078000 22.261000 419.590000
35.607000 22.291000 420.147000
36.047000 22.265000 419.656000
36.564000 22.286000 420.056000
37.011000 22.265000 419.653000
37.461000 22.246000 419.301000
37.965000 22.259000 419.550000
38.440000 22.255000 419.471000
38.912000 22.250000 419.371000
39.404000 22.256000 419.483000
39.849000 22.235000 419.096000
40.364000 22.254000 419.451000
40.795000 22.226000 418.926000
41.331000 22.255000 419.481000
41.758000 22.226000 418.936000
42.318000 22.268000 419.720000
42.749000 22.241000 419.217000
43.316000 22.286000 420.051000
43.779000 22.276000 419.867000
44.370000 22.331000 420.899000
44.864000 22.336000 420.999000
45.477000 22.400000 422.203000
45.952000 22.395000 422.110000
46.567000 22.458000 423.293000
47.100000 22.480000 423.720000
47.672000 22.521000 424.478000
48.192000 22.536000 424.765000
48.773000 22.579000 425.575000
49.289000 22.591000 425.812000
49.889000 22.642000 426.769000
50.446000 22.672000 427.330000
51.052000 22.723000 428.297000
51.582000 22.740000 428.613000
52.140000 22.769000 429.158000
52.725000 22.809000 429.912000
53.287000 22.838000 430.461000
53.852000 22.868000 431.028000
54.441000 22.908000 431.774000
55.061000 22.959000 432.751000
55.600000 22.977000 433.080000
56.173000 23.008000 433.663000
56.744000 23.038000 434.225000
57.376000 23.091000 435.230000
57.912000 23.106000 435.505000
58.532000 23.153000 436.401000
59.111000 23.184000 436.980000
59.712000 23.222000 437.707000
60.240000 23.232000 437.888000
60.887000 23.287000 438.925000
61.442000 23.307000 439.295000
62.098000 23.363000 440.366000
62.625000 23.372000 440.518000
63.314000 23.439000 441.799000
63.803000 23.433000 441.670000
64.509000 23.505000 443.034000
65.043000 23.514000 443.205000
65.751000 23.586000 444.555000
66.268000 23.588000 444.598000
66.963000 23.653000 445.822000
67.472000 23.652000 445.806000
68.227000 23.737000 447.399000
68.708000 23.726000 447.190000
69.438000 23.800000 448.586000
69.980000 23.809000 448.758000
70.710000 23.881000 450.127000
71.165000 23.860000 449.732000
71.898000 23.933000 451.092000
72.473000 23.951000 451.448000
73.179000 24.013000 452.606000
73.694000 24.012000 452.582000
74.418000 24.077000 453.824000
74.993000 24.095000 454.151000
75.737000 24.166000 455.489000
76.320000 24.185000 455.848000
77.042000 24.247000 457.028000
77.665000 24.278000 457.607000
78.375000 24.335000 458.683000
78.939000 24.347000 458.900000
79.631000 24.397000 459.854000
80.248000 24.425000 460.366000
80.956000 24.479000 461.388000
81.623000 24.520000 462.162000
82.281000 24.558000 462.882000
82.949000 24.598000 463.642000
83.579000 24.627000 464.183000
84.265000 24.672000 465.029000
84.908000 24.704000 465.627000
85.695000 24.777000 467.003000
86.283000 24.791000 467.282000
87.061000 24.860000 468.582000
87.576000 24.854000 468.461000
88.422000 24.941000 470.096000
89.006000 24.953000 470.330000
89.850000 25.038000 471.929000
90.316000 25.017000 471.533000
91.210000 25.114000 473.359000
91.701000 25.100000 473.092000
92.659000 25.212000 475.215000
93.110000 25.187000 474.732000
94.075000 25.300000 476.864000
94.529000 25.275000 476.392000
-15.318000 20.545000 379.035000
-14.875000 20.535000 378.859000
-14.430000 20.520000 378.575000
-13.989000 20.511000 378.407000
-13.545000 20.497000 378.148000
-13.106000 20.490000 378.027000
-12.663000 20.475000 377.740000
-12.227000 20.471000 377.667000
-11.789000 20.463000 377.532000
-11.353000 20.459000 377.451000
-10.916000 20.452000 377.332000
-10.480000 20.448000 377.249000
-10.045000 20.443000 377.157000
-9.612000 20.443000 377.164000
-9.176000 20.438000 377.065000
-8.743000 20.437000 377.049000
-8.309000 20.434000 376.999000
-7.877000 20.438000 377.062000
-7.444000 20.438000 377.059000
-7.011000 20.438000 377.059000
-6.579000 20.439000 377.087000
-6.147000 20.442000 377.131000
-5.716000 20.449000 377.266000
-5.282000 20.449000 377.259000
-4.851000 20.457000 377.422000
-4.419000 20.462000 377.507000
-3.987000 20.472000 377.684000
-3.555000 20.477000 377.783000
-3.123000 20.490000 378.022000
-2.689000 20.493000 378.070000
-2.257000 20.509000 378.382000
-1.823000 20.513000 378.441000
-1.389000 20.531000 378.774000
-0.955000 20.536000 378.875000
-0.520000 20.561000 379.343000
-0.085000 20.568000 379.472000
0.352000 20.593000 379.923000
0.788000 20.603000 380.114000
1.227000 20.635000 380.696000
1.664000 20.640000 380.791000
2.105000 20.678000 381.485000
9.512000 23.875000 440.467000
10.018000 23.877000 440.511000
10.511000 23.846000 439.940000
10.998000 23.807000 439.218000
11.497000 23.796000 439.020000
11.985000 23.764000 438.435000
12.469000 23.728000 437.765000
12.951000 23.690000 437.068000
13.434000 23.657000 436.445000
13.916000 23.625000 435.854000
14.396000 23.590000 435.217000
14.874000 23.556000 434.588000
15.348000 23.517000 433.876000
15.821000 23.481000 433.203000
16.292000 23.442000 432.488000
16.769000 23.414000 431.975000
17.240000 23.381000 431.353000
17.705000 23.340000 430.612000
18.166000 23.298000 429.830000
18.632000 23.263000 429.190000
19.106000 23.241000 428.772000
19.573000 23.210000 428.209000
20.028000 23.168000 427.437000
20.487000 23.132000 426.773000
20.949000 23.102000 426.211000
21.420000 23.082000 425.838000
21.871000 23.041000 425.095000
22.326000 23.008000 424.472000
22.775000 22.969000 423.754000
23.236000 22.944000 423.294000
23.686000 22.908000 422.640000
24.150000 22.889000 422.275000
24.597000 22.853000 421.625000
25.065000 22.838000 421.345000
25.524000 22.816000 420.939000
26.014000 22.822000 421.047000
26.455000 22.786000 420.376000
26.978000 22.820000 421.010000
27.413000 22.780000 420.266000
27.939000 22.815000 420.923000
28.383000 22.784000 420.338000
28.902000 22.812000 420.861000
29.367000 22.798000 420.605000
29.876000 22.818000 420.971000
30.337000 22.801000 420.655000
30.828000 22.807000 420.770000
31.301000 22.799000 420.627000
31.774000 22.792000 420.493000
32.265000 22.798000 420.611000
32.743000 22.795000 420.546000
33.221000 22.791000 420.483000
33.715000 22.799000 420.623000
34.179000 22.786000 420.380000
34.687000 22.803000 420.695000
35.128000 22.775000 420.189000
35.661000 22.808000 420.789000
36.097000 22.778000 420.240000
36.632000 22.810000 420.835000
37.055000 22.774000 420.156000
37.589000 22.805000 420.733000
38.018000 22.773000 420.134000
38.552000 22.803000 420.699000
38.992000 22.778000 420.228000
39.491000 22.787000 420.402000
39.958000 22.778000 420.244000
40.440000 22.778000 420.236000
40.943000 22.789000 420.444000
41.392000 22.771000 420.102000
45.923000 22.865000 421.841000
46.533000 22.927000 422.982000
47.049000 22.942000 423.259000
47.630000 22.987000 424.100000
48.150000 23.003000 424.393000
48.740000 23.052000 425.292000
49.258000 23.066000 425.551000
49.835000 23.107000 426.307000
50.411000 23.146000 427.034000
50.997000 23.190000 427.841000
51.524000 23.206000 428.133000
52.126000 23.255000 429.040000
52.679000 23.282000 429.535000
53.226000 23.306000 429.970000
53.814000 23.347000 430.727000
54.394000 23.383000 431.402000
55.023000 23.440000 432.456000
55.520000 23.440000 432.453000
56.150000 23.496000 433.489000
56.699000 23.517000 433.879000
57.310000 23.564000 434.732000
57.875000 23.591000 435.230000
58.488000 23.636000 436.069000
59.056000 23.663000 436.571000
59.639000 23.696000 437.168000
60.209000 23.723000 437.667000
60.856000 23.779000 438.702000
61.372000 23.784000 438.794000
62.035000 23.845000 439.922000
62.575000 23.858000 440.166000
63.267000 23.929000 441.470000
63.747000 23.919000 441.283000
64.441000 23.988000 442.567000
65.010000 24.011000 442.979000
65.708000 24.080000 444.264000
66.168000 24.062000 443.928000
66.901000 24.143000 445.412000
67.417000 24.144000 445.444000
68.166000 24.229000 446.999000
68.661000 24.222000 446.880000
69.392000 24.299000 448.289000
69.921000 24.303000 448.380000
70.654000 24.379000 449.769000
71.128000 24.364000 449.498000
71.866000 24.440000 450.895000
72.438000 24.458000 451.232000
73.141000 24.520000 452.373000
73.648000 24.516000 452.299000
74.369000 24.582000 453.524000
74.927000 24.595000 453.753000
75.644000 24.659000 454.932000
76.253000 24.687000 455.448000
76.979000 24.752000 456.652000
77.627000 24.791000 457.378000
78.296000 24.837000 458.222000
78.865000 24.850000 458.469000
79.599000 24.916000 459.672000
80.217000 24.943000 460.185000
80.912000 24.995000 461.138000
81.547000 25.027000 461.733000
82.210000 25.068000 462.483000
82.917000 25.121000 463.467000
83.529000 25.145000 463.906000
84.216000 25.191000 464.762000
84.858000 25.223000 465.352000
85.639000 25.296000 466.699000
86.213000 25.308000 466.905000
86.994000 25.379000 468.221000
87.534000 25.380000 468.236000
88.354000 25.461000 469.736000
88.899000 25.463000 469.763000
89.806000 25.567000 471.697000
90.273000 25.546000 471.305000
91.139000 25.638000 472.992000
91.632000 25.623000 472.732000
92.580000 25.736000 474.810000
93.024000 25.708000 474.296000
94.012000 25.830000 476.541000
94.469000 25.805000 476.089000
-15.300000 20.955000 378.591000
-14.854000 20.940000 378.315000
-14.412000 20.929000 378.121000
-13.973000 20.922000 377.985000
-13.528000 20.905000 377.675000
-13.091000 20.900000 377.591000
-12.650000 20.887000 377.350000
-12.212000 20.878000 377.199000
-11.774000 20.870000 377.051000
-11.340000 20.869000 377.028000
-10.902000 20.859000 376.850000
-10.469000 20.858000 376.822000
-10.032000 20.849000 376.675000
-9.601000 20.853000 376.747000
-9.167000 20.850000 376.678000
-8.733000 20.846000 376.612000
-8.301000 20.846000 376.616000
-7.867000 20.843000 376.559000
-7.436000 20.847000 376.634000
-7.004000 20.848000 376.647000
-6.572000 20.850000 376.680000
-6.140000 20.854000 376.750000
-5.709000 20.858000 376.829000
-5.277000 20.862000 376.903000
-4.846000 20.867000 376.986000
-4.414000 20.871000 377.073000
-3.983000 20.880000 377.233000
-3.551000 20.887000 377.357000
-3.119000 20.899000 377.571000
-2.686000 20.905000 377.681000
-2.254000 20.915000 377.863000
-1.820000 20.921000 377.963000
-1.387000 20.936000 378.232000
-0.953000 20.944000 378.380000
-0.519000 20.970000 378.850000
-0.084000 20.977000 378.978000
0.351000 21.002000 379.440000
0.787000 21.010000 379.585000
1.225000 21.038000 380.082000
1.662000 21.048000 380.260000
2.102000 21.080000 380.833000
2.542000 21.104000 381.266000
2.984000 21.136000 381.849000
10.019000 24.385000 440.558000
10.509000 24.349000 439.896000
10.996000 24.307000 439.137000
11.489000 24.285000 438.742000
11.979000 24.255000 438.203000
12.463000 24.218000 437.534000
12.942000 24.176000 436.769000
13.422000 24.137000 436.071000
13.901000 24.099000 435.388000
14.379000 24.062000 434.722000
14.857000 24.028000 434.098000
15.334000 23.994000 433.486000
15.807000 23.957000 432.821000
16.278000 23.919000 432.134000
16.751000 23.886000 431.534000
17.223000 23.853000 430.937000
17.693000 23.820000 430.340000
18.154000 23.777000 429.558000
18.617000 23.738000 428.853000
19.082000 23.704000 428.240000
19.562000 23.689000 427.968000
20.017000 23.646000 427.192000
20.474000 23.608000 426.511000
20.926000 23.565000 425.735000
21.397000 23.546000 425.384000
21.856000 23.513000 424.803000
22.311000 23.479000 424.186000
22.758000 23.437000 423.433000
23.219000 23.412000 422.981000
23.670000 23.378000 422.363000
24.147000 23.370000 422.220000
24.598000 23.338000 421.639000
25.096000 23.351000 421.865000
25.557000 23.330000 421.488000
26.070000 23.356000 421.954000
26.529000 23.333000 421.546000
27.028000 23.346000 421.781000
27.490000 23.328000 421.448000
27.978000 23.331000 421.503000
28.457000 23.327000 421.435000
28.952000 23.336000 421.591000
29.414000 23.318000 421.274000
29.921000 23.337000 421.609000
30.372000 23.311000 421.142000
30.890000 23.337000 421.615000
31.332000 23.306000 421.050000
31.859000 23.337000 421.623000
32.300000 23.306000 421.058000
32.813000 23.327000 421.441000
33.265000 23.305000 421.037000
33.763000 23.315000 421.212000
34.231000 23.304000 421.020000
34.720000 23.308000 421.088000
35.179000 23.291000 420.795000
35.692000 23.311000 421.153000
36.184000 23.317000 421.249000
36.661000 23.312000 421.171000
37.112000 23.292000 420.798000
37.629000 23.313000 421.184000
38.066000 23.284000 420.661000
38.605000 23.318000 421.278000
39.051000 23.295000 420.865000
39.568000 23.316000 421.230000
40.008000 23.290000 420.764000
40.544000 23.320000 421.314000
40.972000 23.288000 420.740000
41.458000 23.290000 420.774000
45.900000 23.338000 421.636000
46.498000 23.395000 422.665000
46.988000 23.397000 422.706000
47.588000 23.454000 423.726000
48.117000 23.474000 424.101000
48.697000 23.520000 424.914000
49.232000 23.542000 425.326000
49.802000 23.581000 426.020000
50.345000 23.606000 426.475000
50.920000 23.645000 427.188000
51.484000 23.679000 427.804000
52.090000 23.732000 428.746000
52.642000 23.759000 429.232000
53.187000 23.782000 429.657000
53.768000 23.821000 430.359000
54.329000 23.850000 430.884000
54.899000 23.883000 431.481000
55.481000 23.920000 432.149000
56.105000 23.975000 433.138000
56.658000 23.998000 433.566000
57.255000 24.040000 434.315000
57.821000 24.068000 434.821000
58.445000 24.119000 435.753000
58.963000 24.127000 435.882000
59.589000 24.178000 436.805000
60.163000 24.207000 437.330000
60.812000 24.265000 438.391000
61.311000 24.264000 438.359000
61.974000 24.326000 439.491000
62.512000 24.339000 439.721000
63.202000 24.411000 441.014000
63.706000 24.410000 440.998000
64.390000 24.477000 442.216000
64.930000 24.489000 442.434000
65.659000 24.572000 443.931000
66.117000 24.553000 443.582000
66.832000 24.629000 444.953000
67.359000 24.635000 445.061000
68.071000 24.708000 446.380000
68.569000 24.702000 446.279000
69.328000 24.791000 447.877000
69.811000 24.779000 447.674000
70.555000 24.860000 449.136000
71.076000 24.862000 449.172000
71.810000 24.938000 450.540000
72.329000 24.939000 450.552000
73.057000 25.011000 451.853000
73.598000 25.018000 451.991000
74.317000 25.086000 453.209000
74.865000 25.095000 453.377000
75.553000 25.151000 454.386000
76.149000 25.175000 454.828000
76.892000 25.248000 456.135000
77.471000 25.266000 456.464000
78.145000 25.314000 457.340000
78.795000 25.354000 458.062000
79.539000 25.424000 459.323000
80.154000 25.452000 459.825000
80.799000 25.489000 460.493000
81.435000 25.522000 461.100000
82.119000 25.571000 461.969000
82.825000 25.625000 462.951000
83.431000 25.648000 463.366000
84.147000 25.704000 464.380000
84.764000 25.729000 464.837000
85.534000 25.801000 466.126000
86.085000 25.805000 466.213000
86.883000 25.884000 467.626000
87.474000 25.900000 467.914000
88.264000 25.974000 469.256000
88.746000 25.957000 468.955000
89.683000 26.073000 471.049000
90.186000 26.062000 470.852000
91.073000 26.162000 472.648000
91.527000 26.136000 472.192000
92.482000 26.253000 474.307000
92.931000 26.227000 473.822000
93.896000 26.345000 475.953000
94.367000 26.324000 475.576000
-15.281000 21.364000 378.134000
-14.838000 21.351000 377.893000
-14.393000 21.335000 377.612000
-13.956000 21.330000 377.532000
-13.512000 21.313000 377.228000
-13.076000 21.308000 377.138000
-12.635000 21.296000 376.920000
-12.199000 21.289000 376.809000
-11.758000 21.275000 376.561000
-11.330000 21.282000 376.682000
-10.890000 21.268000 376.435000
-10.458000 21.268000 376.427000
-10.022000 21.261000 376.312000
-9.590000 21.261000 376.313000
-9.157000 21.260000 376.280000
-8.725000 21.258000 376.249000
-8.292000 21.255000 376.207000
-7.859000 21.255000 376.203000
-7.428000 21.255000 376.204000
-6.997000 21.260000 376.280000
-6.565000 21.261000 376.296000
-6.134000 21.263000 376.342000
-5.702000 21.265000 376.370000
-5.272000 21.274000 376.529000
-4.841000 21.277000 376.585000
-4.409000 21.280000 376.633000
-3.977000 21.286000 376.746000
-3.546000 21.292000 376.860000
-3.115000 21.305000 377.083000
-2.683000 21.314000 377.242000
-2.251000 21.322000 377.387000
-1.818000 21.333000 377.572000
-1.386000 21.345000 377.792000
-0.952000 21.356000 377.992000
-0.519000 21.377000 378.359000
-0.084000 21.388000 378.544000
0.351000 21.405000 378.860000
0.786000 21.416000 379.053000
1.223000 21.445000 379.556000
1.660000 21.459000 379.804000
2.099000 21.489000 380.344000
2.538000 21.506000 380.642000
2.979000 21.536000 381.170000
10.506000 24.846000 439.753000
10.991000 24.801000 438.965000
11.479000 24.765000 438.331000
11.967000 24.734000 437.776000
12.453000 24.701000 437.197000
12.932000 24.658000 436.433000
13.411000 24.617000 435.703000
13.890000 24.578000 435.018000
14.367000 24.540000 434.346000
14.844000 24.505000 433.716000
15.322000 24.472000 433.141000
15.797000 24.438000 432.533000
16.267000 24.397000 431.817000
16.736000 24.359000 431.138000
17.206000 24.323000 430.502000
17.681000 24.297000 430.046000
18.144000 24.256000 429.321000
18.607000 24.217000 428.621000
19.066000 24.175000 427.880000
19.544000 24.159000 427.593000
20.008000 24.125000 426.999000
20.464000 24.085000 426.286000
20.913000 24.039000 425.477000
21.372000 24.005000 424.874000
21.834000 23.977000 424.381000
22.302000 23.956000 424.012000
22.752000 23.918000 423.323000
23.226000 23.905000 423.109000
23.684000 23.878000 422.618000
24.176000 23.884000 422.724000
24.628000 23.851000 422.147000
25.143000 23.880000 422.655000
25.589000 23.844000 422.016000
26.119000 23.885000 422.752000
26.562000 23.847000 422.075000
27.082000 23.878000 422.623000
27.526000 23.843000 422.000000
28.039000 23.866000 422.417000
28.504000 23.850000 422.128000
28.998000 23.857000 422.257000
29.473000 23.849000 422.116000
29.959000 23.851000 422.141000
30.431000 23.840000 421.960000
30.924000 23.847000 422.076000
31.378000 23.824000 421.667000
31.900000 23.852000 422.159000
32.345000 23.823000 421.651000
32.849000 23.837000 421.899000
33.289000 23.806000 421.342000
33.778000 23.809000 421.399000
34.240000 23.794000 421.138000
34.722000 23.793000 421.115000
35.178000 23.774000 420.785000
35.711000 23.807000 421.369000
36.213000 23.819000 421.583000
36.702000 23.823000 421.645000
37.192000 23.826000 421.712000
37.712000 23.849000 422.105000
38.171000 23.833000 421.825000
38.672000 23.843000 422.005000
39.133000 23.829000 421.753000
39.640000 23.843000 421.999000
40.068000 23.809000 421.397000
40.597000 23.835000 421.864000
45.920000 23.832000 421.814000
46.496000 23.879000 422.647000
46.950000 23.864000 422.371000
47.542000 23.918000 423.324000
48.080000 23.943000 423.781000
48.662000 23.990000 424.607000
49.201000 24.015000 425.053000
49.776000 24.058000 425.802000
50.291000 24.070000 426.022000
50.858000 24.107000 426.668000
51.445000 24.152000 427.475000
52.017000 24.190000 428.143000
52.601000 24.232000 428.897000
53.154000 24.260000 429.386000
53.721000 24.293000 429.977000
54.261000 24.315000 430.351000
54.858000 24.360000 431.152000
55.433000 24.395000 431.777000
56.056000 24.451000 432.761000
56.581000 24.463000 432.975000
57.209000 24.519000 433.965000
57.757000 24.540000 434.338000
58.366000 24.586000 435.163000
58.896000 24.599000 435.386000
59.555000 24.665000 436.554000
60.129000 24.695000 437.081000
60.779000 24.755000 438.146000
61.267000 24.749000 438.039000
61.926000 24.812000 439.151000
62.456000 24.822000 439.332000
63.140000 24.893000 440.583000
63.670000 24.902000 440.748000
64.349000 24.969000 441.936000
64.825000 24.957000 441.725000
65.555000 25.042000 443.227000
66.079000 25.048000 443.329000
66.799000 25.127000 444.733000
67.307000 25.126000 444.713000
68.017000 25.200000 446.020000
68.510000 25.193000 445.898000
69.263000 25.281000 447.453000
69.754000 25.273000 447.311000
70.483000 25.350000 448.678000
71.043000 25.366000 448.963000
71.762000 25.438000 450.243000
72.234000 25.422000 449.956000
72.979000 25.502000 451.373000
73.552000 25.521000 451.705000
74.266000 25.589000 452.900000
74.823000 25.601000 453.120000
75.509000 25.657000 454.118000
76.084000 25.676000 454.440000
76.780000 25.734000 455.470000
77.372000 25.757000 455.877000
78.088000 25.820000 457.003000
78.754000 25.867000 457.823000
79.494000 25.937000 459.065000
80.094000 25.960000 459.480000
80.744000 26.000000 460.182000
81.406000 26.043000 460.934000
82.077000 26.088000 461.733000
82.772000 26.140000 462.656000
83.402000 26.171000 463.202000
84.112000 26.226000 464.185000
84.691000 26.240000 464.437000
85.431000 26.304000 465.565000
86.009000 26.317000 465.800000
86.839000 26.407000 467.387000
87.437000 26.426000 467.716000
88.232000 26.503000 469.088000
88.699000 26.482000 468.708000
89.585000 26.585000 470.537000
90.123000 26.584000 470.523000
91.026000 26.691000 472.404000
91.475000 26.663000 471.924000
92.384000 26.770000 473.805000
92.840000 26.744000 473.358000
93.800000 26.864000 475.466000
94.280000 26.845000 475.138000
-16.599000 21.818000 378.479000
-16.154000 21.804000 378.227000
-15.707000 21.787000 377.933000
-15.262000 21.771000 377.662000
-14.823000 21.764000 377.528000
-14.377000 21.745000 377.200000
-13.939000 21.736000 377.057000
-13.499000 21.725000 376.862000
-13.061000 21.716000 376.703000
-12.623000 21.707000 376.542000
-12.188000 21.703000 376.472000
-11.748000 21.689000 376.232000
-11.317000 21.690000 376.257000
-10.880000 21.680000 376.084000
-10.446000 21.677000 376.027000
-10.013000 21.674000 375.975000
-9.581000 21.672000 375.942000
-9.148000 21.670000 375.900000
-8.716000 21.669000 375.895000
-8.284000 21.667000 375.844000
-7.854000 21.671000 375.927000
-7.420000 21.665000 375.822000
-6.990000 21.672000 375.930000
-6.558000 21.669000 375.887000
-6.128000 21.673000 375.962000
-5.697000 21.677000 376.020000
-5.267000 21.684000 376.152000
-4.836000 21.690000 376.245000
-4.404000 21.689000 376.231000
-3.973000 21.696000 376.354000
-3.542000 21.702000 376.455000
-3.112000 21.714000 376.675000
-2.680000 21.722000 376.814000
-2.249000 21.735000 377.031000
-1.816000 21.740000 377.116000
-1.384000 21.755000 377.384000
-0.951000 21.766000 377.578000
-0.518000 21.784000 377.890000
-0.084000 21.795000 378.064000
0.350000 21.811000 378.357000
0.785000 21.827000 378.625000
1.221000 21.853000 379.083000
1.658000 21.868000 379.340000
2.096000 21.893000 379.776000
2.534000 21.908000 380.026000
2.975000 21.943000 380.639000
3.415000 21.965000 381.018000
3.859000 22.003000 381.680000
4.303000 22.032000 382.191000
13.878000 25.056000 434.647000
14.355000 25.018000 433.983000
14.831000 24.981000 433.340000
15.306000 24.944000 432.697000
15.782000 24.911000 432.125000
16.253000 24.873000 431.469000
16.723000 24.835000 430.798000
17.189000 24.793000 430.078000
17.664000 24.766000 429.617000
18.135000 24.736000 429.095000
18.597000 24.696000 428.391000
19.055000 24.652000 427.633000
19.521000 24.620000 427.072000
19.994000 24.599000 426.720000
20.453000 24.562000 426.069000
20.903000 24.515000 425.262000
21.355000 24.474000 424.549000
21.812000 24.440000 423.961000
22.293000 24.434000 423.849000
22.751000 24.402000 423.303000
23.244000 24.410000 423.433000
23.706000 24.385000 423.004000
24.211000 24.405000 423.340000
24.672000 24.380000 422.914000
25.182000 24.404000 423.327000
25.639000 24.376000 422.839000
26.156000 24.405000 423.346000
26.614000 24.379000 422.902000
27.117000 24.395000 423.167000
27.584000 24.378000 422.884000
28.090000 24.396000 423.188000
28.553000 24.376000 422.850000
29.055000 24.390000 423.094000
29.523000 24.375000 422.829000
30.025000 24.389000 423.062000
30.492000 24.374000 422.811000
30.976000 24.373000 422.787000
31.464000 24.375000 422.824000
31.952000 24.377000 422.860000
32.412000 24.357000 422.523000
32.870000 24.337000 422.174000
33.303000 24.299000 421.512000
33.781000 24.295000 421.440000
34.237000 24.275000 421.098000
34.724000 24.277000 421.135000
35.178000 24.257000 420.786000
35.750000 24.318000 421.835000
36.234000 24.318000 421.832000
36.786000 24.362000 422.604000
37.233000 24.337000 422.173000
37.782000 24.379000 422.894000
38.229000 24.354000 422.460000
38.714000 24.354000 422.461000
39.219000 24.366000 422.674000
39.708000 24.369000 422.718000
40.176000 24.358000 422.533000
40.654000 24.354000 422.464000
45.929000 24.322000 421.903000
46.494000 24.364000 422.632000
46.935000 24.341000 422.234000
47.517000 24.391000 423.096000
48.034000 24.406000 423.370000
48.616000 24.455000 424.207000
49.168000 24.487000 424.767000
49.735000 24.526000 425.452000
50.248000 24.538000 425.654000
50.826000 24.581000 426.402000
51.399000 24.621000 427.099000
51.962000 24.656000 427.697000
52.530000 24.692000 428.320000
53.102000 24.729000 428.969000
53.685000 24.771000 429.694000
54.215000 24.787000 429.980000
54.815000 24.835000 430.814000
55.384000 24.869000 431.393000
56.012000 24.928000 432.419000
56.513000 24.930000 432.453000
57.144000 24.989000 433.478000
57.703000 25.015000 433.934000
58.309000 25.062000 434.741000
58.854000 25.081000 435.077000
59.513000 25.149000 436.248000
60.063000 25.169000 436.602000
60.672000 25.214000 437.377000
61.224000 25.234000 437.731000
61.886000 25.300000 438.866000
62.400000 25.304000 438.936000
63.064000 25.368000 440.053000
63.611000 25.385000 440.341000
64.300000 25.457000 441.602000
64.760000 25.439000 441.275000
65.468000 25.517000 442.637000
66.027000 25.537000 442.981000
66.750000 25.619000 444.407000
67.210000 25.600000 444.075000
67.947000 25.686000 445.566000
68.443000 25.680000 445.464000
69.187000 25.766000 446.963000
69.688000 25.762000 446.885000
70.429000 25.846000 448.339000
70.995000 25.864000 448.661000
71.713000 25.937000 449.930000
72.180000 25.920000 449.625000
72.900000 25.992000 450.881000
73.479000 26.014000 451.258000
74.197000 26.084000 452.479000
74.756000 26.098000 452.714000
75.444000 26.156000 453.727000
76.013000 26.173000 454.017000
76.672000 26.220000 454.832000
77.273000 26.247000 455.294000
78.003000 26.317000 456.508000
78.668000 26.364000 457.329000
79.287000 26.395000 457.871000
79.931000 26.434000 458.547000
80.634000 26.492000 459.554000
81.342000 26.551000 460.572000
82.004000 26.594000 461.324000
82.650000 26.632000 461.974000
83.343000 26.684000 462.878000
84.031000 26.734000 463.740000
84.585000 26.740000 463.855000
85.313000 26.802000 464.919000
85.913000 26.822000 465.278000
86.743000 26.914000 466.871000
87.263000 26.909000 466.785000
88.127000 27.010000 468.531000
88.613000 26.994000 468.252000
89.467000 27.090000 469.917000
89.970000 27.079000 469.726000
90.916000 27.200000 471.832000
91.351000 27.168000 471.282000
92.283000 27.284000 473.290000
92.709000 27.249000 472.689000
93.695000 27.379000 474.937000
94.180000 27.362000 474.634000
-17.476000 22.264000 378.658000
-17.026000 22.243000 378.306000
-16.579000 22.226000 378.020000
-16.134000 22.212000 377.774000
-15.690000 22.197000 377.529000
-15.245000 22.181000 377.250000
-14.805000 22.170000 377.075000
-14.363000 22.155000 376.819000
-13.921000 22.141000 376.567000
-13.485000 22.135000 376.467000
-13.048000 22.127000 376.343000
-12.609000 22.115000 376.125000
-12.176000 22.113000 376.095000
-11.738000 22.103000 375.919000
-11.304000 22.098000 375.841000
-10.869000 22.091000 375.718000
-10.436000 22.086000 375.639000
-10.004000 22.085000 375.619000
-9.572000 22.084000 375.598000
-9.139000 22.079000 375.512000
-8.708000 22.080000 375.544000
-8.275000 22.076000 375.464000
-7.846000 22.080000 375.541000
-7.413000 22.076000 375.468000
-6.984000 22.081000 375.559000
-6.552000 22.080000 375.544000
-6.122000 22.084000 375.611000
-5.692000 22.088000 375.680000
-5.261000 22.092000 375.739000
-4.832000 22.102000 375.912000
-4.399000 22.098000 375.834000
-3.970000 22.109000 376.027000
-3.539000 22.112000 376.088000
-3.109000 22.126000 376.317000
-2.677000 22.132000 376.420000
-2.247000 22.149000 376.702000
-1.814000 22.149000 376.714000
-1.383000 22.166000 377.006000
-0.950000 22.174000 377.128000
-0.518000 22.197000 377.529000
-0.084000 22.205000 377.664000
0.350000 22.227000 378.035000
0.784000 22.240000 378.262000
1.220000 22.262000 378.627000
1.656000 22.276000 378.878000
2.093000 22.295000 379.199000
2.531000 22.319000 379.608000
2.971000 22.353000 380.187000
3.410000 22.371000 380.479000
3.854000 22.408000 381.114000
4.297000 22.437000 381.603000
13.868000 25.537000 434.341000
14.344000 25.496000 433.643000
14.820000 25.459000 433.002000
15.293000 25.419000 432.328000
15.768000 25.384000 431.733000
16.241000 25.350000 431.147000
16.711000 25.311000 430.488000
17.177000 25.269000 429.782000
17.644000 25.232000 429.143000
18.116000 25.203000 428.654000
18.586000 25.172000 428.133000
19.044000 25.128000 427.375000
19.503000 25.087000 426.683000
19.968000 25.057000 426.160000
20.445000 25.041000 425.892000
20.896000 24.996000 425.129000
21.356000 24.963000 424.569000
21.821000 24.937000 424.130000
22.313000 24.943000 424.224000
22.777000 24.917000 423.783000
23.279000 24.934000 424.079000
23.741000 24.907000 423.619000
24.245000 24.926000 423.935000
24.718000 24.911000 423.691000
25.213000 24.920000 423.839000
25.694000 24.914000 423.745000
26.186000 24.920000 423.841000
26.666000 24.914000 423.732000
27.155000 24.915000 423.761000
27.638000 24.912000 423.703000
28.130000 24.918000 423.798000
28.598000 24.901000 423.511000
29.104000 24.918000 423.798000
29.559000 24.891000 423.345000
30.086000 24.926000 423.933000
30.527000 24.888000 423.291000
31.052000 24.919000 423.827000
31.489000 24.880000 423.157000
31.978000 24.882000 423.197000
32.422000 24.850000 422.652000
32.868000 24.821000 422.148000
33.293000 24.776000 421.385000
33.755000 24.760000 421.112000
34.200000 24.732000 420.641000
34.702000 24.746000 420.877000
35.168000 24.733000 420.664000
35.743000 24.797000 421.753000
36.233000 24.801000 421.814000
36.797000 24.855000 422.734000
37.250000 24.833000 422.366000
37.807000 24.881000 423.176000
38.269000 24.865000 422.907000
38.804000 24.897000 423.445000
39.258000 24.877000 423.100000
39.801000 24.912000 423.710000
40.235000 24.880000 423.157000
40.766000 24.907000 423.620000
45.992000 24.840000 422.474000
46.531000 24.869000 422.966000
46.957000 24.837000 422.434000
47.529000 24.883000 423.204000
48.029000 24.890000 423.327000
48.586000 24.926000 423.946000
49.125000 24.953000 424.400000
49.695000 24.995000 425.107000
50.223000 25.014000 425.445000
50.797000 25.056000 426.157000
51.361000 25.093000 426.781000
51.909000 25.121000 427.259000
52.472000 25.156000 427.847000
53.040000 25.192000 428.466000
53.613000 25.230000 429.114000
54.183000 25.266000 429.729000
54.774000 25.311000 430.495000
55.335000 25.342000 431.017000
55.920000 25.383000 431.711000
56.465000 25.405000 432.084000
57.090000 25.462000 433.062000
57.634000 25.483000 433.418000
58.268000 25.543000 434.436000
58.821000 25.566000 434.834000
59.461000 25.627000 435.865000
59.942000 25.619000 435.723000
60.598000 25.685000 436.848000
61.173000 25.716000 437.371000
61.847000 25.787000 438.585000
62.345000 25.785000 438.551000
63.001000 25.847000 439.611000
63.529000 25.857000 439.776000
64.220000 25.932000 441.052000
64.714000 25.927000 440.963000
