96.234000 88.471000 407.219000
96.649000 88.423000 406.997000
97.037000 88.351000 406.666000
97.380000 88.238000 406.148000
97.762000 88.162000 405.798000
98.134000 88.078000 405.410000
98.574000 88.055000 405.302000
99.032000 88.049000 405.275000
99.548000 88.093000 405.480000
100.004000 88.085000 405.441000
100.518000 88.127000 405.636000
101.012000 88.152000 405.749000
101.580000 88.241000 406.159000
102.260000 88.425000 407.007000
102.828000 88.512000 407.406000
103.228000 88.454000 407.141000
173.347000 103.527000 476.520000
173.764000 103.450000 476.162000
174.237000 103.406000 475.962000
174.685000 103.347000 475.692000
175.200000 103.329000 475.606000
175.630000 103.261000 475.294000
176.114000 103.225000 475.128000
176.606000 103.193000 474.983000
177.084000 103.154000 474.803000
177.616000 103.146000 474.766000
178.088000 103.104000 474.572000
178.672000 103.126000 474.675000
179.107000 103.063000 474.383000
179.700000 103.091000 474.512000
180.148000 103.036000 474.258000
180.775000 103.082000 474.472000
181.277000 103.058000 474.362000
181.852000 103.075000 474.440000
182.381000 103.066000 474.399000
182.975000 103.094000 474.528000
183.549000 103.111000 474.603000
184.147000 103.140000 474.738000
184.748000 103.172000 474.883000
185.351000 103.204000 475.030000
186.024000 103.274000 475.356000
186.638000 103.312000 475.530000
187.331000 103.393000 475.903000
187.947000 103.431000 476.079000
61.805000 84.085000 384.993000
62.189000 84.006000 384.635000
62.612000 83.981000 384.521000
62.994000 83.902000 384.158000
63.412000 83.871000 384.016000
63.812000 83.818000 383.771000
64.215000 83.769000 383.549000
64.639000 83.747000 383.449000
65.052000 83.713000 383.290000
65.459000 83.670000 383.097000
65.894000 83.664000 383.068000
66.303000 83.625000 382.890000
66.737000 83.618000 382.858000
67.156000 83.592000 382.740000
67.584000 83.577000 382.672000
68.024000 83.578000 382.675000
68.453000 83.566000 382.618000
68.897000 83.571000 382.644000
69.338000 83.573000 382.651000
69.786000 83.584000 382.700000
70.227000 83.586000 382.709000
70.678000 83.599000 382.771000
71.136000 83.621000 382.873000
71.590000 83.638000 382.948000
72.036000 83.646000 382.983000
72.498000 83.671000 383.100000
72.977000 83.715000 383.302000
73.467000 83.772000 383.563000
73.954000 83.825000 383.803000
74.456000 83.894000 384.120000
74.944000 83.947000 384.362000
75.433000 84.000000 384.605000
75.930000 84.061000 384.887000
76.460000 84.158000 385.331000
76.982000 84.246000 385.731000
77.490000 84.315000 386.050000
78.029000 84.420000 386.528000
87.862000 88.513000 405.270000
88.287000 88.472000 405.083000
88.741000 88.461000 405.032000
89.167000 88.423000 404.856000
89.629000 88.419000 404.840000
90.073000 88.399000 404.747000
90.552000 88.413000 404.811000
90.999000 88.395000 404.731000
91.471000 88.402000 404.762000
91.924000 88.391000 404.712000
92.385000 88.388000 404.697000
92.866000 88.403000 404.767000
93.588000 88.647000 405.881000
94.428000 89.000000 407.498000
94.872000 88.977000 407.393000
95.335000 88.973000 407.374000
95.758000 88.931000 407.184000
96.197000 88.904000 407.060000
96.597000 88.842000 406.778000
96.990000 88.775000 406.469000
97.346000 88.674000 406.007000
97.736000 88.605000 405.691000
98.132000 88.542000 405.401000
98.614000 88.556000 405.467000
99.082000 88.559000 405.480000
99.606000 88.611000 405.717000
100.065000 88.604000 405.688000
100.571000 88.639000 405.849000
101.092000 88.688000 406.072000
101.758000 88.863000 406.871000
102.354000 88.975000 407.385000
102.836000 88.987000 407.439000
173.591000 103.893000 475.687000
174.067000 103.851000 475.495000
174.504000 103.786000 475.199000
174.983000 103.746000 475.018000
175.437000 103.692000 474.771000
175.884000 103.635000 474.506000
176.399000 103.617000 474.426000
176.847000 103.561000 474.168000
177.394000 103.562000 474.173000
177.875000 103.525000 474.003000
178.446000 103.541000 474.076000
178.894000 103.485000 473.820000
179.446000 103.489000 473.842000
179.924000 103.451000 473.667000
180.545000 103.496000 473.870000
181.023000 103.458000 473.696000
181.604000 103.479000 473.792000
182.149000 103.479000 473.796000
182.733000 103.502000 473.898000
183.308000 103.519000 473.977000
183.854000 103.520000 473.983000
184.500000 103.578000 474.245000
185.099000 103.608000 474.384000
185.776000 103.682000 474.721000
186.366000 103.707000 474.837000
187.045000 103.781000 475.175000
187.694000 103.838000 475.438000
61.490000 84.702000 385.795000
61.879000 84.629000 385.458000
62.271000 84.560000 385.143000
62.680000 84.515000 384.940000
63.079000 84.456000 384.674000
63.497000 84.425000 384.531000
63.885000 84.355000 384.212000
64.311000 84.335000 384.118000
64.720000 84.294000 383.932000
65.138000 84.263000 383.794000
65.549000 84.226000 383.623000
65.979000 84.211000 383.558000
66.389000 84.173000 383.383000
66.827000 84.170000 383.371000
67.240000 84.136000 383.215000
67.692000 84.151000 383.282000
68.111000 84.125000 383.164000
68.560000 84.136000 383.216000
68.986000 84.120000 383.141000
69.437000 84.133000 383.199000
69.871000 84.125000 383.164000
70.323000 84.139000 383.230000
70.766000 84.144000 383.250000
71.234000 84.176000 383.398000
71.689000 84.193000 383.475000
72.157000 84.226000 383.626000
72.627000 84.260000 383.778000
73.096000 84.293000 383.929000
73.578000 84.340000 384.144000
74.091000 84.422000 384.517000
74.566000 84.460000 384.689000
75.063000 84.522000 384.973000
75.585000 84.611000 385.378000
76.072000 84.661000 385.604000
76.616000 84.773000 386.117000
77.114000 84.833000 386.388000
77.666000 84.952000 386.930000
78.202000 85.051000 387.381000
88.435000 89.086000 405.761000
88.869000 89.055000 405.618000
89.301000 89.021000 405.462000
89.748000 89.002000 405.380000
90.185000 88.975000 405.253000
90.656000 88.980000 405.276000
91.099000 88.958000 405.178000
91.565000 88.959000 405.180000
92.018000 88.947000 405.125000
92.487000 88.950000 405.142000
92.961000 88.958000 405.179000
93.593000 89.118000 405.905000
94.310000 89.356000 406.988000
94.788000 89.366000 407.035000
95.263000 89.373000 407.066000
95.705000 89.349000 406.956000
96.130000 89.310000 406.780000
96.518000 89.236000 406.443000
96.931000 89.187000 406.220000
97.320000 89.116000 405.896000
97.738000 89.073000 405.699000
98.148000 89.022000 405.466000
98.669000 89.072000 405.697000
99.144000 89.080000 405.731000
99.659000 89.124000 405.934000
100.128000 89.126000 405.943000
100.636000 89.163000 406.113000
101.211000 89.260000 406.551000
101.888000 89.444000 407.390000
102.404000 89.486000 407.582000
102.814000 89.436000 407.353000
173.437000 104.346000 475.266000
173.873000 104.281000 474.967000
174.320000 104.221000 474.697000
174.804000 104.185000 474.533000
175.288000 104.149000 474.368000
175.724000 104.084000 474.074000
176.234000 104.064000 473.982000
176.689000 104.012000 473.743000
177.220000 104.004000 473.709000
177.706000 103.970000 473.554000
178.237000 103.963000 473.519000
178.696000 103.914000 473.296000
179.239000 103.913000 473.294000
179.734000 103.885000 473.166000
180.317000 103.908000 473.272000
180.820000 103.885000 473.166000
181.409000 103.911000 473.285000
181.897000 103.879000 473.139000
182.501000 103.914000 473.298000
183.072000 103.930000 473.369000
183.659000 103.954000 473.480000
184.241000 103.976000 473.579000
184.829000 104.001000 473.693000
185.508000 104.077000 474.038000
186.077000 104.090000 474.101000
186.807000 104.194000 474.572000
187.390000 104.215000 474.668000
61.625000 85.332000 386.640000
62.018000 85.262000 386.324000
62.396000 85.172000 385.913000
62.798000 85.117000 385.666000
63.210000 85.075000 385.475000
63.593000 84.995000 385.112000
63.983000 84.926000 384.801000
64.417000 84.915000 384.752000
64.813000 84.856000 384.482000
65.238000 84.835000 384.387000
65.650000 84.797000 384.215000
66.074000 84.774000 384.110000
66.481000 84.731000 383.918000
66.911000 84.717000 383.855000
67.336000 84.698000 383.766000
67.787000 84.710000 383.820000
68.200000 84.675000 383.665000
68.657000 84.695000 383.756000
69.070000 84.662000 383.603000
69.535000 84.692000 383.742000
69.973000 84.689000 383.726000
70.423000 84.700000 383.774000
70.866000 84.703000 383.789000
71.334000 84.735000 383.934000
71.802000 84.767000 384.082000
72.255000 84.782000 384.147000
72.718000 84.807000 384.263000
73.222000 84.879000 384.588000
73.712000 84.935000 384.841000
74.193000 84.980000 385.047000
74.698000 85.052000 385.370000
75.190000 85.108000 385.625000
75.700000 85.184000 385.967000
76.227000 85.277000 386.393000
76.741000 85.356000 386.748000
77.291000 85.472000 387.276000
88.998000 89.651000 406.207000
89.431000 89.616000 406.051000
89.860000 89.580000 405.886000
90.311000 89.564000 405.816000
90.755000 89.543000 405.721000
91.210000 89.532000 405.670000
91.664000 89.521000 405.620000
92.126000 89.517000 405.603000
92.577000 89.503000 405.538000
93.048000 89.508000 405.562000
93.587000 89.578000 405.879000
94.203000 89.721000 406.527000
94.686000 89.736000 406.595000
95.164000 89.747000 406.642000
95.609000 89.726000 406.549000
96.047000 89.700000 406.429000
96.460000 89.649000 406.202000
96.910000 89.634000 406.132000
97.318000 89.580000 405.889000
97.751000 89.551000 405.754000
98.195000 89.530000 405.661000
98.738000 89.600000 405.978000
99.213000 89.608000 406.014000
99.721000 89.646000 406.185000
100.187000 89.645000 406.182000
100.772000 89.751000 406.661000
101.412000 89.905000 407.358000
101.970000 89.984000 407.717000
102.374000 89.928000 407.464000
176.039000 104.493000 473.457000
176.523000 104.458000 473.298000
176.995000 104.415000 473.105000
177.527000 104.409000 473.076000
178.020000 104.379000 472.944000
178.532000 104.361000 472.862000
179.047000 104.345000 472.788000
179.536000 104.314000 472.646000
180.109000 104.331000 472.724000
180.604000 104.303000 472.599000
181.204000 104.336000 472.748000
181.708000 104.314000 472.649000
182.289000 104.336000 472.748000
182.833000 104.337000 472.750000
183.458000 104.384000 472.962000
184.007000 104.387000 472.976000
184.613000 104.423000 473.140000
185.226000 104.462000 473.317000
185.861000 104.513000 473.550000
186.534000 104.586000 473.878000
187.104000 104.600000 473.943000
187.852000 104.714000 474.459000
188.428000 104.731000 474.538000
189.201000 104.858000 475.111000
189.857000 104.918000 475.386000
190.648000 105.054000 475.998000
191.414000 105.174000 476.545000
63.295000 85.633000 385.994000
63.688000 85.565000 385.688000
64.091000 85.512000 385.452000
64.530000 85.508000 385.431000
64.925000 85.444000 385.145000
65.355000 85.428000 385.073000
65.754000 85.372000 384.819000
66.183000 85.356000 384.747000
66.593000 85.315000 384.564000
67.014000 85.289000 384.447000
67.453000 85.286000 384.433000
67.876000 85.262000 384.324000
68.327000 85.274000 384.379000
68.754000 85.257000 384.301000
69.195000 85.257000 384.299000
69.644000 85.266000 384.340000
70.093000 85.275000 384.382000
70.540000 85.283000 384.416000
70.995000 85.299000 384.491000
71.465000 85.332000 384.639000
71.935000 85.366000 384.793000
72.404000 85.398000 384.937000
72.886000 85.445000 385.147000
73.361000 85.484000 385.322000
73.870000 85.561000 385.669000
74.347000 85.600000 385.846000
74.863000 85.684000 386.224000
75.364000 85.749000 386.519000
75.903000 85.856000 387.002000
90.433000 90.153000 406.368000
90.866000 90.119000 406.214000
91.330000 90.117000 406.206000
91.759000 90.080000 406.041000
92.228000 90.082000 406.051000
92.667000 90.056000 405.932000
93.143000 90.065000 405.973000
93.625000 90.080000 406.042000
94.140000 90.127000 406.254000
94.627000 90.147000 406.343000
95.117000 90.169000 406.441000
95.572000 90.158000 406.391000
96.028000 90.148000 406.347000
96.458000 90.114000 406.192000
96.904000 90.095000 406.108000
97.315000 90.044000 405.877000
97.788000 90.050000 405.904000
98.268000 90.063000 405.963000
98.795000 90.118000 406.212000
99.267000 90.124000 406.237000
99.768000 90.155000 406.377000
100.280000 90.196000 406.562000
100.975000 90.400000 407.481000
101.528000 90.476000 407.824000
101.966000 90.448000 407.701000
176.370000 104.910000 472.888000
176.841000 104.867000 472.695000
177.356000 104.851000 472.620000
177.874000 104.836000 472.555000
178.350000 104.797000 472.378000
178.910000 104.807000 472.424000
179.367000 104.757000 472.199000
179.963000 104.789000 472.340000
180.425000 104.742000 472.131000
181.029000 104.778000 472.293000
181.555000 104.769000 472.251000
182.127000 104.786000 472.326000
182.647000 104.773000 472.270000
183.229000 104.796000 472.371000
183.794000 104.808000 472.429000
184.418000 104.855000 472.639000
185.051000 104.906000 472.870000
185.639000 104.932000 472.985000
186.248000 104.969000 473.152000
186.838000 104.995000 473.271000
187.593000 105.114000 473.805000
188.154000 105.123000 473.846000
188.921000 105.247000 474.407000
189.564000 105.302000 474.654000
190.383000 105.453000 475.337000
191.093000 105.544000 475.745000
65.869000 85.964000 385.494000
66.307000 85.959000 385.469000
66.704000 85.900000 385.207000
67.155000 85.910000 385.252000
67.564000 85.868000 385.062000
68.009000 85.872000 385.081000
68.441000 85.860000 385.025000
68.888000 85.865000 385.049000
69.322000 85.855000 385.004000
69.765000 85.856000 385.007000
70.215000 85.866000 385.053000
70.667000 85.878000 385.106000
71.116000 85.886000 385.142000
71.589000 85.923000 385.310000
72.057000 85.954000 385.447000
72.544000 86.006000 385.682000
73.033000 86.060000 385.923000
73.503000 86.092000 386.067000
74.004000 86.159000 386.367000
74.512000 86.234000 386.701000
75.041000 86.332000 387.140000
90.551000 90.737000 406.896000
91.017000 90.736000 406.892000
91.441000 90.693000 406.699000
91.892000 90.677000 406.628000
92.340000 90.659000 406.545000
92.789000 90.641000 406.467000
93.251000 90.637000 406.447000
93.711000 90.630000 406.416000
94.184000 90.636000 406.444000
94.645000 90.630000 406.418000
95.144000 90.661000 406.556000
95.577000 90.630000 406.415000
96.046000 90.632000 406.423000
96.462000 90.584000 406.208000
96.914000 90.570000 406.148000
97.358000 90.550000 406.056000
97.892000 90.613000 406.338000
98.361000 90.614000 406.346000
98.874000 90.657000 406.537000
99.325000 90.642000 406.472000
99.881000 90.724000 406.837000
100.519000 90.878000 407.529000
101.097000 90.977000 407.974000
101.536000 90.951000 407.854000
179.175000 105.187000 471.695000
179.757000 105.211000 471.802000
180.227000 105.169000 471.612000
180.797000 105.185000 471.687000
181.334000 105.183000 471.675000
181.896000 105.194000 471.727000
182.453000 105.203000 471.768000
183.021000 105.219000 471.836000
183.611000 105.246000 471.960000
184.177000 105.260000 472.021000
184.782000 105.296000 472.183000
185.355000 105.313000 472.261000
186.020000 105.383000 472.573000
186.643000 105.428000 472.776000
187.333000 105.511000 473.147000
187.909000 105.530000 473.231000
188.695000 105.666000 473.840000
189.266000 105.680000 473.906000
190.057000 105.818000 474.523000
190.790000 105.922000 474.991000
191.678000 106.112000 475.843000
66.014000 86.597000 386.343000
66.435000 86.567000 386.209000
66.850000 86.532000 386.049000
67.297000 86.535000 386.066000
67.718000 86.507000 385.941000
68.149000 86.492000 385.872000
68.581000 86.478000 385.813000
69.046000 86.506000 385.933000
69.468000 86.479000 385.815000
69.916000 86.485000 385.843000
70.376000 86.506000 385.933000
70.866000 86.563000 386.191000
71.300000 86.552000 386.141000
71.790000 86.608000 386.389000
72.265000 86.646000 386.558000
72.745000 86.689000 386.751000
73.240000 86.749000 387.021000
73.706000 86.774000 387.133000
74.227000 86.864000 387.531000
90.702000 91.356000 407.573000
91.144000 91.330000 407.458000
91.568000 91.286000 407.261000
92.017000 91.268000 407.181000
92.456000 91.240000 407.057000
92.917000 91.234000 407.028000
93.358000 91.208000 406.913000
93.810000 91.193000 406.846000
94.263000 91.180000 406.786000
94.724000 91.174000 406.760000
95.188000 91.170000 406.744000
95.637000 91.153000 406.669000
96.088000 91.139000 406.603000
96.528000 91.113000 406.487000
96.986000 91.105000 406.452000
97.465000 91.116000 406.503000
97.986000 91.166000 406.727000
98.446000 91.160000 406.700000
98.952000 91.196000 406.860000
99.441000 91.216000 406.949000
100.116000 91.406000 407.796000
100.674000 91.487000 408.156000
101.119000 91.465000 408.060000
179.010000 105.632000 471.261000
179.611000 105.667000 471.418000
180.076000 105.622000 471.219000
180.664000 105.650000 471.341000
181.165000 105.626000 471.237000
181.740000 105.646000 471.324000
182.304000 105.659000 471.382000
182.868000 105.672000 471.441000
183.441000 105.690000 471.522000
183.979000 105.688000 471.513000
184.613000 105.741000 471.752000
185.162000 105.745000 471.768000
185.850000 105.828000 472.140000
186.405000 105.836000 472.173000
187.093000 105.919000 472.542000
187.659000 105.932000 472.600000
188.445000 106.069000 473.211000
189.031000 106.093000 473.318000
189.799000 106.218000 473.880000
190.484000 106.297000 474.229000
191.368000 106.485000 475.071000
69.187000 87.127000 386.723000
69.622000 87.114000 386.668000
70.072000 87.123000 386.705000
70.539000 87.151000 386.831000
70.985000 87.153000 386.839000
71.439000 87.165000 386.893000
71.942000 87.236000 387.209000
90.862000 91.986000 408.293000
91.278000 91.933000 408.058000
91.726000 91.912000 407.965000
92.153000 91.871000 407.781000
92.597000 91.847000 407.677000
93.034000 91.817000 407.540000
93.477000 91.792000 407.430000
93.926000 91.773000 407.348000
94.369000 91.750000 407.242000
94.819000 91.733000 407.168000
95.285000 91.731000 407.159000
95.742000 91.721000 407.114000
96.212000 91.723000 407.125000
96.644000 91.689000 406.975000
97.136000 91.713000 407.079000
97.579000 91.690000 406.978000
98.087000 91.728000 407.147000
98.540000 91.714000 407.086000
99.119000 91.818000 407.547000
99.725000 91.945000 408.111000
100.284000 92.028000 408.477000
100.738000 92.014000 408.416000
178.890000 106.101000 470.945000
179.455000 106.116000 471.009000
179.934000 106.079000 470.846000
180.490000 106.088000 470.887000
180.990000 106.065000 470.781000
181.564000 106.084000 470.866000
182.118000 106.092000 470.902000
182.681000 106.104000 470.958000
183.245000 106.118000 471.020000
183.800000 106.126000 471.055000
184.410000 106.166000 471.231000
184.977000 106.181000 471.297000
185.666000 106.265000 471.673000
186.206000 106.264000 471.668000
186.911000 106.358000 472.083000
187.475000 106.370000 472.138000
188.188000 106.467000 472.567000
188.784000 106.497000 472.699000
189.553000 106.624000 473.263000
190.200000 106.682000 473.522000
190.985000 106.817000 474.122000
69.374000 87.807000 387.766000
69.833000 87.824000 387.840000
70.312000 87.866000 388.028000
91.860000 92.516000 408.563000
92.289000 92.476000 408.384000
92.725000 92.443000 408.239000
93.149000 92.398000 408.041000
93.606000 92.387000 407.993000
94.024000 92.338000 407.774000
94.479000 92.325000 407.718000
94.926000 92.304000 407.626000
95.399000 92.308000 407.645000
95.848000 92.290000 407.565000
96.313000 92.288000 407.554000
96.750000 92.258000 407.424000
97.231000 92.270000 407.476000
97.686000 92.259000 407.425000
98.196000 92.298000 407.598000
98.753000 92.381000 407.965000
99.411000 92.557000 408.744000
99.846000 92.526000 408.605000
178.273000 106.596000 470.743000
178.765000 106.567000 470.615000
179.306000 106.568000 470.616000
179.760000 106.517000 470.391000
180.327000 106.533000 470.461000
180.842000 106.518000 470.396000
181.416000 106.538000 470.483000
181.931000 106.523000 470.418000
182.521000 106.552000 470.547000
183.077000 106.561000 470.588000
183.650000 106.580000 470.670000
184.250000 106.614000 470.822000
184.816000 106.629000 470.888000
185.473000 106.696000 471.182000
186.024000 106.701000 471.207000
186.753000 106.809000 471.683000
187.268000 106.794000 471.614000
187.988000 106.895000 472.063000
188.591000 106.930000 472.218000
189.321000 107.036000 472.684000
189.924000 107.070000 472.836000
190.760000 107.235000 473.563000
191.516000 107.354000 474.089000
92.458000 93.115000 409.132000
92.863000 93.050000 408.847000
93.296000 93.013000 408.686000
93.724000 92.972000 408.506000
94.156000 92.936000 408.347000
94.615000 92.926000 408.302000
95.053000 92.896000 408.171000
95.530000 92.904000 408.206000
95.971000 92.878000 408.090000
96.429000 92.867000 408.045000
96.873000 92.844000 407.940000
97.368000 92.869000 408.050000
97.857000 92.888000 408.137000
98.494000 93.047000 408.834000
99.068000 93.146000 409.267000
99.521000 93.129000 409.196000
99.921000 93.065000 408.913000
176.601000 107.106000 470.609000
177.108000 107.086000 470.521000
177.632000 107.077000 470.478000
178.137000 107.055000 470.384000
178.628000 107.026000 470.255000
179.155000 107.018000 470.221000
179.626000 106.977000 470.042000
180.194000 106.994000 470.114000
180.700000 106.974000 470.026000
181.264000 106.988000 470.088000
181.780000 106.974000 470.028000
182.367000 107.002000 470.149000
182.917000 107.008000 470.174000
183.495000 107.030000 470.273000
184.080000 107.057000 470.389000
184.664000 107.082000 470.501000
185.277000 107.124000 470.685000
185.846000 107.140000 470.757000
186.547000 107.232000 471.162000
187.083000 107.230000 471.151000
187.812000 107.337000 471.621000
188.387000 107.356000 471.707000
189.106000 107.457000 472.149000
189.706000 107.490000 472.293000
190.542000 107.655000 473.020000
191.226000 107.735000 473.371000
93.442000 93.629000 409.328000
93.852000 93.569000 409.063000
94.291000 93.539000 408.933000
94.726000 93.505000 408.784000
95.170000 93.479000 408.672000
95.639000 93.479000 408.671000
96.079000 93.451000 408.546000
96.549000 93.452000 408.551000
97.026000 93.459000 408.585000
97.610000 93.570000 409.067000
98.145000 93.632000 409.338000
98.697000 93.709000 409.677000
176.975000 107.546000 470.167000
177.483000 107.527000 470.083000
178.007000 107.517000 470.042000
178.476000 107.475000 469.856000
179.031000 107.484000 469.896000
179.524000 107.456000 469.773000
180.076000 107.463000 469.805000
180.576000 107.440000 469.703000
181.136000 107.452000 469.758000
181.659000 107.442000 469.715000
182.248000 107.471000 469.842000
182.786000 107.471000 469.840000
183.341000 107.480000 469.880000
183.941000 107.515000 470.033000
184.533000 107.545000 470.166000
185.111000 107.568000 470.263000
185.691000 107.591000 470.364000
186.353000 107.661000 470.671000
186.885000 107.656000 470.650000
187.636000 107.778000 471.180000
188.200000 107.790000 471.237000
188.894000 107.878000 471.618000
189.562000 107.950000 471.933000
190.373000 108.103000 472.602000
191.024000 108.164000 472.871000
93.601000 94.259000 410.023000
94.033000 94.220000 409.853000
94.454000 94.171000 409.639000
94.895000 94.142000 409.513000
95.338000 94.115000 409.396000
95.808000 94.115000 409.394000
96.278000 94.115000 409.394000
96.818000 94.182000 409.688000
97.387000 94.278000 410.105000
178.326000 107.923000 469.459000
178.914000 107.953000 469.589000
179.380000 107.909000 469.397000
179.951000 107.927000 469.479000
180.451000 107.905000 469.379000
181.022000 107.923000 469.461000
181.543000 107.913000 469.414000
182.110000 107.929000 469.487000
182.658000 107.934000 469.509000
183.237000 107.958000 469.612000
183.812000 107.979000 469.705000
184.360000 107.984000 469.725000
184.980000 108.032000 469.932000
185.542000 108.044000 469.986000
186.182000 108.102000 470.239000
186.735000 108.110000 470.274000
187.441000 108.206000 470.690000
188.019000 108.228000 470.785000
188.754000 108.339000 471.271000
189.375000 108.385000 471.468000
190.133000 108.508000 472.005000
190.825000 108.594000 472.378000
94.232000 94.892000 410.722000
94.661000 94.849000 410.538000
95.124000 94.841000 410.501000
95.619000 94.864000 410.602000
96.132000 94.905000 410.779000
96.605000 94.906000 410.784000
97.116000 94.945000 410.952000
178.212000 108.393000 469.159000
178.805000 108.426000 469.303000
179.271000 108.381000 469.111000
179.847000 108.404000 469.208000
180.332000 108.372000 469.070000
180.903000 108.391000 469.154000
181.428000 108.383000 469.117000
181.988000 108.396000 469.172000
182.542000 108.405000 469.212000
183.067000 108.397000 469.177000
183.659000 108.428000 469.312000
184.202000 108.431000 469.324000
184.835000 108.486000 469.563000
185.376000 108.487000 469.567000
186.048000 108.564000 469.903000
186.593000 108.567000 469.916000
187.282000 108.654000 470.291000
187.853000 108.672000 470.368000
188.606000 108.795000 470.901000
189.225000 108.840000 471.094000
189.960000 108.951000 471.577000
190.662000 109.043000 471.974000
178.097000 108.861000 468.856000
178.702000 108.902000 469.032000
179.161000 108.854000 468.825000
179.741000 108.879000 468.932000
180.223000 108.845000 468.786000
180.778000 108.855000 468.829000
181.294000 108.841000 468.771000
181.863000 108.860000 468.851000
182.436000 108.880000 468.940000
182.937000 108.858000 468.843000
183.566000 108.912000 469.074000
184.063000 108.887000 468.970000
184.730000 108.963000 469.295000
185.261000 108.958000 469.275000
185.924000 109.031000 469.590000
186.437000 109.016000 469.523000
187.137000 109.109000 469.926000
187.700000 109.123000 469.986000
188.440000 109.240000 470.487000
189.035000 109.271000 470.621000
189.755000 109.374000 471.067000
190.458000 109.468000 471.469000
191.163000 109.561000 471.872000
176.568000 109.453000 469.087000
176.990000 109.381000 468.777000
177.594000 109.421000 468.951000
178.014000 109.348000 468.637000
178.591000 109.372000 468.740000
179.047000 109.322000 468.525000
179.612000 109.339000 468.596000
180.086000 109.300000 468.430000
180.664000 109.324000 468.532000
181.184000 109.313000 468.487000
181.742000 109.326000 468.539000
182.304000 109.339000 468.599000
182.846000 109.342000 468.609000
183.461000 109.388000 468.807000
183.960000 109.365000 468.707000
184.620000 109.437000 469.016000
185.139000 109.425000 468.967000
185.812000 109.504000 469.305000
186.290000 109.469000 469.154000
187.000000 109.569000 469.582000
187.543000 109.571000 469.592000
188.290000 109.692000 470.111000
188.890000 109.727000 470.262000
189.615000 109.834000 470.719000
190.276000 109.904000 471.018000
190.979000 109.998000 471.420000
175.938000 109.935000 468.844000
176.498000 109.948000 468.899000
176.912000 109.871000 468.569000
177.481000 109.890000 468.653000
177.927000 109.833000 468.408000
178.491000 109.849000 468.477000
178.955000 109.804000 468.285000
179.508000 109.813000 468.325000
179.995000 109.782000 468.192000
180.569000 109.804000 468.286000
181.097000 109.798000 468.261000
181.642000 109.803000 468.279000
182.181000 109.803000 468.283000
182.736000 109.814000 468.328000
183.310000 109.836000 468.421000
183.848000 109.836000 468.420000
184.475000 109.889000 468.649000
185.003000 109.883000 468.621000
185.665000 109.956000 468.936000
186.159000 109.930000 468.822000
186.862000 110.027000 469.236000
187.401000 110.027000 469.236000
188.132000 110.140000 469.717000
188.747000 110.184000 469.905000
189.481000 110.297000 470.388000
190.108000 110.347000 470.602000
190.826000 110.450000 471.041000
177.835000 110.314000 468.168000
178.380000 110.319000 468.187000
178.864000 110.285000 468.046000
179.415000 110.294000 468.083000
179.896000 110.259000 467.935000
180.472000 110.283000 468.035000
180.989000 110.270000 467.983000
181.538000 110.277000 468.012000
182.076000 110.278000 468.014000
182.632000 110.289000 468.061000
183.196000 110.305000 468.129000
183.751000 110.315000 468.174000
184.344000 110.348000 468.314000
184.886000 110.351000 468.326000
185.540000 110.420000 468.620000
186.063000 110.411000 468.581000
186.783000 110.519000 469.038000
187.302000 110.507000 468.989000
188.022000 110.614000 469.442000
188.595000 110.634000 469.526000
189.343000 110.756000 470.045000
189.937000 110.788000 470.179000
190.699000 110.917000 470.727000
191.433000 111.029000 471.204000
192.166000 111.140000 471.675000
193.013000 111.316000 472.421000
193.740000 111.423000 472.873000
194.624000 111.618000 473.702000
177.748000 110.797000 467.938000
178.302000 110.808000 467.982000
178.783000 110.773000 467.835000
179.314000 110.769000 467.818000
179.824000 110.752000 467.749000
180.369000 110.757000 467.769000
180.879000 110.740000 467.699000
181.436000 110.753000 467.751000
181.975000 110.753000 467.753000
182.530000 110.764000 467.799000
183.093000 110.780000 467.865000
183.663000 110.800000 467.949000
184.237000 110.822000 468.044000
184.802000 110.839000 468.114000
185.451000 110.905000 468.394000
185.992000 110.907000 468.401000
186.674000 110.993000 468.765000
187.233000 111.005000 468.817000
187.905000 111.084000 469.151000
188.492000 111.113000 469.270000
189.190000 111.206000 469.666000
189.814000 111.256000 469.875000
190.578000 111.387000 470.429000
191.301000 111.493000 470.879000
192.036000 111.606000 471.355000
192.845000 111.762000 472.012000
177.679000 111.291000 467.757000
178.224000 111.296000 467.777000
178.700000 111.258000 467.617000
179.228000 111.253000 467.595000
179.724000 111.227000 467.488000
180.292000 111.247000 467.569000
180.800000 111.229000 467.494000
181.348000 111.235000 467.522000
181.876000 111.230000 467.500000
182.450000 111.253000 467.595000
183.006000 111.265000 467.644000
183.581000 111.288000 467.741000
184.147000 111.305000 467.814000
184.726000 111.330000 467.920000
185.361000 111.389000 468.168000
185.911000 111.396000 468.199000
186.576000 111.473000 468.519000
187.120000 111.476000 468.533000
187.813000 111.568000 468.919000
188.388000 111.590000 469.011000
189.072000 111.676000 469.372000
189.714000 111.737000 469.628000
190.466000 111.862000 470.153000
191.113000 111.924000 470.416000
191.908000 112.073000 471.042000
192.674000 112.204000 471.592000
178.131000 111.775000 467.533000
178.600000 111.732000 467.355000
179.156000 111.744000 467.405000
179.650000 111.718000 467.296000
180.210000 111.733000 467.356000
180.725000 111.719000 467.300000
181.272000 111.726000 467.327000
181.809000 111.726000 467.327000
182.377000 111.745000 467.409000
182.914000 111.745000 467.409000
183.498000 111.774000 467.529000
184.057000 111.787000 467.585000
184.633000 111.811000 467.685000
185.264000 111.868000 467.921000
185.815000 111.876000 467.956000
186.488000 111.958000 468.297000
187.028000 111.959000 468.302000
187.709000 112.045000 468.662000
188.298000 112.075000 468.787000
188.951000 112.143000 469.072000
189.615000 112.217000 469.382000
190.360000 112.339000 469.891000
190.985000 112.389000 470.101000
191.773000 112.535000 470.711000
192.544000 112.669000 471.275000
178.062000 112.268000 467.351000
178.515000 112.216000 467.134000
179.101000 112.247000 467.261000
179.587000 112.215000 467.132000
180.159000 112.237000 467.223000
180.665000 112.218000 467.144000
181.207000 112.222000 467.158000
181.747000 112.224000 467.168000
182.297000 112.232000 467.202000
182.847000 112.241000 467.237000
183.415000 112.260000 467.317000
183.983000 112.279000 467.397000
184.569000 112.309000 467.522000
185.173000 112.350000 467.693000
185.706000 112.348000 467.683000
186.381000 112.431000 468.029000
186.918000 112.430000 468.026000
187.600000 112.517000 468.388000
188.202000 112.556000 468.549000
188.888000 112.644000 468.916000
189.504000 112.690000 469.107000
190.218000 112.794000 469.541000
190.888000 112.872000 469.863000
191.653000 113.005000 470.417000
192.394000 113.122000 470.907000
193.144000 113.245000 471.418000
194.011000 113.436000 472.212000
177.986000 112.757000 467.153000
178.442000 112.706000 466.942000
179.017000 112.731000 467.044000
179.499000 112.696000 466.902000
180.085000 112.728000 467.032000
180.607000 112.719000 466.995000
181.165000 112.732000 467.052000
181.686000 112.723000 467.012000
182.233000 112.730000 467.040000
182.788000 112.741000 467.087000
183.344000 112.753000 467.137000
183.906000 112.769000 467.201000
184.473000 112.787000 467.279000
185.086000 112.834000 467.473000
185.630000 112.838000 467.489000
186.280000 112.907000 467.774000
186.828000 112.914000 467.802000
187.513000 113.003000 468.171000
188.103000 113.034000 468.302000
188.812000 113.137000 468.728000
189.440000 113.190000 468.948000
190.118000 113.273000 469.293000
190.798000 113.357000 469.640000
191.535000 113.474000 470.126000
192.256000 113.581000 470.569000
192.992000 113.697000 471.047000
193.872000 113.896000 471.873000
194.658000 114.039000 472.466000
175.976000 113.381000 467.514000
177.904000 113.241000 466.938000
178.340000 113.177000 466.675000
178.915000 113.202000 466.778000
179.426000 113.187000 466.713000
180.037000 113.234000 466.907000
180.560000 113.226000 466.874000
181.111000 113.235000 466.913000
181.636000 113.228000 466.882000
182.181000 113.234000 466.907000
182.741000 113.248000 466.966000
183.289000 113.255000 466.996000
183.843000 113.266000 467.042000
184.388000 113.272000 467.065000
185.025000 113.334000 467.319000
185.577000 113.343000 467.358000
186.219000 113.407000 467.623000
186.768000 113.414000 467.652000
187.444000 113.498000 467.999000
188.021000 113.522000 468.097000
188.692000 113.603000 468.429000
189.360000 113.681000 468.750000
190.047000 113.770000 469.117000
190.725000 113.853000 469.462000
191.412000 113.941000 469.825000
192.129000 114.047000 470.259000
192.911000 114.190000 470.850000
193.749000 114.365000 471.572000
194.525000 114.503000 472.142000
175.925000 113.884000 467.378000
176.339000 113.805000 467.052000
176.819000 113.769000 466.905000
177.247000 113.700000 466.619000
177.807000 113.715000 466.684000
178.235000 113.647000 466.401000
178.844000 113.693000 466.591000
179.362000 113.682000 466.546000
180.003000 113.748000 466.819000
180.521000 113.737000 466.771000
181.063000 113.741000 466.788000
181.593000 113.737000 466.772000
182.130000 113.737000 466.774000
182.681000 113.747000 466.812000
183.206000 113.740000 466.784000
183.799000 113.776000 466.931000
184.343000 113.780000 466.950000
184.948000 113.822000 467.123000
185.476000 113.817000 467.103000
186.149000 113.901000 467.447000
186.676000 113.895000 467.422000
187.364000 113.987000 467.799000
187.941000 114.012000 467.899000
188.642000 114.111000 468.306000
189.268000 114.163000 468.523000
189.934000 114.241000 468.840000
190.641000 114.342000 469.255000
191.351000 114.444000 469.674000
192.096000 114.567000 470.177000
192.835000 114.685000 470.663000
193.642000 114.844000 471.314000
194.416000 114.981000 471.878000
175.870000 114.385000 467.232000
176.257000 114.288000 466.836000
176.747000 114.259000 466.713000
177.133000 114.162000 466.319000
177.727000 114.199000 466.472000
178.160000 114.134000 466.204000
178.776000 114.186000 466.415000
179.303000 114.180000 466.393000
179.952000 114.252000 466.686000
180.484000 114.250000 466.677000
181.031000 114.256000 466.704000
181.548000 114.245000 466.656000
182.060000 114.230000 466.597000
182.619000 114.244000 466.654000
183.137000 114.233000 466.611000
183.753000 114.283000 466.815000
184.303000 114.291000 466.848000
184.911000 114.336000 467.029000
185.401000 114.307000 466.913000
186.103000 114.409000 467.330000
186.622000 114.399000 467.286000
187.284000 114.475000 467.599000
187.884000 114.514000 467.756000
188.600000 114.623000 468.201000
189.206000 114.664000 468.370000
189.871000 114.741000 468.684000
190.579000 114.843000 469.102000
191.252000 114.924000 469.431000
191.987000 115.041000 469.910000
192.746000 115.173000 470.447000
193.554000 115.332000 471.098000
175.421000 114.979000 467.464000
175.840000 114.902000 467.152000
176.208000 114.792000 466.705000
176.708000 114.769000 466.611000
177.088000 114.668000 466.201000
177.683000 114.707000 466.357000
178.126000 114.647000 466.115000
178.742000 114.699000 466.326000
179.258000 114.687000 466.276000
179.892000 114.750000 466.532000
180.438000 114.756000 466.557000
180.980000 114.760000 466.575000
181.491000 114.745000 466.510000
182.002000 114.729000 466.447000
182.579000 114.755000 466.553000
183.092000 114.741000 466.495000
183.712000 114.794000 466.710000
184.227000 114.781000 466.657000
184.867000 114.845000 466.920000
185.380000 114.831000 466.861000
186.063000 114.922000 467.230000
186.571000 114.904000 467.158000
187.236000 114.983000 467.479000
187.822000 115.013000 467.603000
188.533000 115.120000 468.035000
189.136000 115.159000 468.197000
189.835000 115.257000 468.595000
190.557000 115.368000 469.046000
191.212000 115.439000 469.334000
191.943000 115.554000 469.802000
192.690000 115.679000 470.309000
193.490000 115.835000 470.943000
175.366000 115.480000 467.319000
175.809000 115.419000 467.071000
176.194000 115.319000 466.668000
176.676000 115.284000 466.526000
177.079000 115.198000 466.178000
177.660000 115.228000 466.298000
178.105000 115.169000 466.059000
178.716000 115.218000 466.259000
179.220000 115.198000 466.176000
179.817000 115.237000 466.336000
180.363000 115.244000 466.363000
180.896000 115.242000 466.356000
181.433000 115.243000 466.362000
181.944000 115.228000 466.298000
182.545000 115.269000 466.466000
183.037000 115.242000 466.354000
183.656000 115.294000 466.567000
184.137000 115.260000 466.427000
184.812000 115.347000 466.781000
185.329000 115.335000 466.732000
185.987000 115.411000 467.039000
186.506000 115.400000 466.995000
187.197000 115.496000 467.383000
187.746000 115.503000 467.413000
188.466000 115.616000 467.869000
189.058000 115.649000 468.003000
189.776000 115.759000 468.449000
190.491000 115.867000 468.886000
191.158000 115.945000 469.200000
191.883000 116.058000 469.657000
192.590000 116.159000 470.066000
193.426000 116.337000 470.786000
175.308000 115.978000 467.163000
175.785000 115.939000 467.006000
176.159000 115.832000 466.577000
176.675000 115.819000 466.524000
177.076000 115.731000 466.169000
177.662000 115.764000 466.303000
178.099000 115.700000 466.045000
178.702000 115.744000 466.222000
179.195000 115.717000 466.113000
179.778000 115.748000 466.237000
180.286000 115.730000 466.164000
180.837000 115.740000 466.205000
181.386000 115.749000 466.241000
181.905000 115.738000 466.198000
182.504000 115.779000 466.360000
182.994000 115.750000 466.246000
183.622000 115.808000 466.481000
184.100000 115.772000 466.335000
184.783000 115.865000 466.707000
185.271000 115.835000 466.586000
185.953000 115.926000 466.953000
186.457000 115.906000 466.873000
187.171000 116.016000 467.317000
187.693000 116.007000 467.280000
188.401000 116.113000 467.707000
189.007000 116.155000 467.877000
189.714000 116.259000 468.295000
190.412000 116.357000 468.690000
191.102000 116.449000 469.062000
191.845000 116.574000 469.565000
192.580000 116.693000 470.042000
193.372000 116.845000 470.655000
175.256000 116.480000 467.025000
175.748000 116.451000 466.908000
176.146000 116.359000 466.542000
176.670000 116.352000 466.511000
177.080000 116.269000 466.179000
177.654000 116.294000 466.280000
178.097000 116.234000 466.038000
178.688000 116.271000 466.186000
179.174000 116.238000 466.057000
179.742000 116.260000 466.142000
180.249000 116.241000 466.068000
180.802000 116.253000 466.115000
181.340000 116.254000 466.121000
181.863000 116.247000 466.090000
182.472000 116.294000 466.280000
182.978000 116.275000 466.205000
183.592000 116.325000 466.404000
184.103000 116.309000 466.341000
184.749000 116.379000 466.621000
185.245000 116.354000 466.521000
185.948000 116.459000 466.941000
186.447000 116.436000 466.848000
187.146000 116.537000 467.254000
187.677000 116.534000 467.241000
188.356000 116.622000 467.596000
188.944000 116.654000 467.721000
189.669000 116.770000 468.186000
190.330000 116.845000 468.489000
191.054000 116.959000 468.945000
191.829000 117.103000 469.524000
192.546000 117.212000 469.958000
193.332000 117.361000 470.557000
194.106000 117.503000 471.125000
195.122000 117.789000 472.276000
175.206000 116.983000 466.892000
175.716000 116.965000 466.823000
176.135000 116.888000 466.512000
176.684000 116.897000 466.548000
177.085000 116.808000 466.192000
177.663000 116.836000 466.305000
178.091000 116.766000 466.025000
178.667000 116.792000 466.129000
179.161000 116.765000 466.022000
179.721000 116.781000 466.088000
180.224000 116.761000 466.005000
180.769000 116.767000 466.030000
181.316000 116.774000 466.060000
181.846000 116.771000 466.047000
182.445000 116.812000 466.211000
182.945000 116.790000 466.121000
183.576000 116.851000 466.364000
184.057000 116.816000 466.226000
184.737000 116.907000 466.590000
185.241000 116.887000 466.511000
185.908000 116.970000 466.842000
186.404000 116.945000 466.739000
187.121000 117.058000 467.193000
187.648000 117.052000 467.169000
188.372000 117.169000 467.634000
188.923000 117.177000 467.669000
189.627000 117.281000 468.082000
190.290000 117.358000 468.390000
191.015000 117.473000 468.849000
191.817000 117.635000 469.494000
192.529000 117.741000 469.917000
193.323000 117.896000 470.535000
194.123000 118.054000 471.166000
195.104000 118.321000 472.232000
175.189000 117.508000 466.847000
175.697000 117.489000 466.772000
176.107000 117.405000 466.439000
176.683000 117.431000 466.544000
177.091000 117.347000 466.209000
177.668000 117.374000 466.318000
178.100000 117.307000 466.048000
178.677000 117.334000 466.156000
179.156000 117.297000 466.011000
179.722000 117.317000 466.090000
180.215000 117.289000 465.980000
180.771000 117.303000 466.035000
181.306000 117.303000 466.035000
181.825000 117.293000 465.993000
182.414000 117.328000 466.132000
182.935000 117.318000 466.094000
183.564000 117.378000 466.334000
184.041000 117.341000 466.186000
184.716000 117.430000 466.537000
185.205000 117.400000 466.419000
185.871000 117.483000 466.748000
186.379000 117.465000 466.679000
187.099000 117.581000 467.138000
187.624000 117.573000 467.108000
188.335000 117.683000 467.542000
188.934000 117.721000 467.696000
189.632000 117.821000 468.093000
190.299000 117.902000 468.412000
191.006000 118.006000 468.827000
191.767000 118.143000 469.373000
192.508000 118.268000 469.866000
193.305000 118.425000 470.493000
194.075000 118.566000 471.051000
195.104000 118.863000 472.232000
175.182000 118.039000 466.829000
175.696000 118.024000 466.770000
176.133000 117.958000 466.506000
176.674000 117.961000 466.520000
177.090000 117.882000 466.207000
177.674000 117.914000 466.334000
178.110000 117.848000 466.073000
178.684000 117.874000 466.175000
179.139000 117.821000 465.966000
179.702000 117.839000 466.037000
180.213000 117.824000 465.977000
180.768000 117.836000 466.027000
181.315000 117.844000 466.058000
181.818000 117.824000 465.977000
182.402000 117.855000 466.100000
182.915000 117.841000 466.044000
183.537000 117.896000 466.263000
184.023000 117.865000 466.139000
184.655000 117.927000 466.384000
185.166000 117.911000 466.322000
185.870000 118.018000 466.746000
186.377000 117.999000 466.672000
187.067000 118.097000 467.059000
187.621000 118.108000 467.102000
188.343000 118.224000 467.561000
188.928000 118.255000 467.681000
189.649000 118.369000 468.135000
190.290000 118.434000 468.391000
191.025000 118.556000 468.874000
191.740000 118.666000 469.307000
192.464000 118.780000 469.758000
193.261000 118.938000 470.384000
194.063000 119.099000 471.020000
195.080000 119.390000 472.173000
172.058000 119.010000 468.539000
172.445000 118.905000 468.129000
172.831000 118.801000 467.718000
173.318000 118.767000 467.584000
173.764000 118.705000 467.338000
174.237000 118.661000 467.169000
174.717000 118.623000 467.018000
175.171000 118.567000 466.798000
175.696000 118.560000 466.769000
176.120000 118.485000 466.473000
176.676000 118.499000 466.527000
177.087000 118.415000 466.197000
177.675000 118.450000 466.336000
178.099000 118.376000 466.046000
178.661000 118.394000 466.116000
179.140000 118.357000 465.968000
179.703000 118.375000 466.040000
180.204000 118.352000 465.951000
180.741000 118.354000 465.957000
181.286000 118.360000 465.982000
181.821000 118.360000 465.983000
182.395000 118.386000 466.084000
182.924000 118.381000 466.066000
183.540000 118.434000 466.272000
183.999000 118.384000 466.077000
184.659000 118.465000 466.395000
185.178000 118.454000 466.351000
185.857000 118.546000 466.712000
186.375000 118.534000 466.669000
187.040000 118.616000 466.991000
187.589000 118.624000 467.022000
188.331000 118.754000 467.534000
188.924000 118.789000 467.671000
189.633000 118.897000 468.097000
190.293000 118.974000 468.399000
190.969000 119.060000 468.736000
191.715000 119.189000 469.246000
192.439000 119.304000 469.698000
193.269000 119.483000 470.404000
194.059000 119.637000 471.011000
170.938000 119.894000 469.896000
171.252000 119.736000 469.280000
171.608000 119.609000 468.780000
171.973000 119.489000 468.308000
172.409000 119.418000 468.031000
172.830000 119.338000 467.717000
173.331000 119.313000 467.618000
173.779000 119.252000 467.379000
174.247000 119.205000 467.196000
174.709000 119.154000 466.996000
175.163000 119.098000 466.777000
175.691000 119.093000 466.756000
176.113000 119.016000 466.454000
176.673000 119.032000 466.519000
177.091000 118.953000 466.208000
177.655000 118.972000 466.283000
178.102000 118.913000 466.053000
178.664000 118.931000 466.122000
179.136000 118.889000 465.958000
179.693000 118.903000 466.015000
180.178000 118.871000 465.887000
180.729000 118.881000 465.926000
181.295000 118.901000 466.006000
181.836000 118.905000 466.021000
182.405000 118.927000 466.109000
182.914000 118.910000 466.041000
183.516000 118.954000 466.212000
184.030000 118.940000 466.158000
184.681000 119.014000 466.448000
185.159000 118.977000 466.304000
185.834000 119.067000 466.655000
186.368000 119.066000 466.651000
187.036000 119.150000 466.981000
187.600000 119.168000 467.050000
188.339000 119.296000 467.552000
188.932000 119.331000 467.691000
189.608000 119.419000 468.034000
190.256000 119.488000 468.307000
190.997000 119.616000 468.806000
191.714000 119.727000 469.243000
192.440000 119.843000 469.699000
193.293000 120.039000 470.464000
194.086000 120.195000 471.076000
170.121000 120.620000 470.623000
170.450000 120.470000 470.038000
170.818000 120.349000 469.566000
171.147000 120.201000 468.990000
171.547000 120.105000 468.613000
171.937000 120.001000 468.208000
172.397000 119.947000 467.998000
172.831000 119.875000 467.718000
173.342000 119.858000 467.650000
173.766000 119.780000 467.345000
174.250000 119.743000 467.203000
174.717000 119.696000 467.018000
175.164000 119.635000 466.781000
175.677000 119.619000 466.719000
176.110000 119.549000 466.445000
176.688000 119.578000 466.557000
177.106000 119.498000 466.247000
177.664000 119.513000 466.306000
178.111000 119.454000 466.075000
178.683000 119.479000 466.171000
179.129000 119.420000 465.941000
179.689000 119.436000 466.004000
180.206000 119.424000 465.957000
180.755000 119.433000 465.994000
181.284000 119.429000 465.979000
181.810000 119.423000 465.954000
182.406000 119.463000 466.110000
182.917000 119.448000 466.050000
183.518000 119.490000 466.216000
184.021000 119.470000 466.136000
184.648000 119.529000 466.367000
185.188000 119.531000 466.377000
185.856000 119.617000 466.711000
186.378000 119.608000 466.676000
187.078000 119.713000 467.084000
187.628000 119.722000 467.120000
188.336000 119.831000 467.545000
188.883000 119.837000 467.571000
189.614000 119.960000 468.049000
190.255000 120.025000 468.304000
191.001000 120.157000 468.816000
191.769000 120.301000 469.378000
192.488000 120.413000 469.817000
168.852000 121.413000 471.606000
169.211000 121.282000 471.098000
169.593000 121.169000 470.657000
169.972000 121.054000 470.211000
170.318000 120.916000 469.674000
170.711000 120.812000 469.272000
171.091000 120.701000 468.838000
171.543000 120.640000 468.602000
171.961000 120.555000 468.274000
172.422000 120.502000 468.066000
172.863000 120.435000 467.806000
173.342000 120.394000 467.648000
173.772000 120.320000 467.360000
174.261000 120.288000 467.234000
174.733000 120.243000 467.061000
175.186000 120.186000 466.839000
175.693000 120.166000 466.761000
176.124000 120.094000 466.482000
176.690000 120.115000 466.564000
177.111000 120.037000 466.262000
177.677000 120.058000 466.342000
178.117000 119.994000 466.092000
178.668000 120.004000 466.132000
179.135000 119.958000 465.954000
