15.849000 30.662000 375.014000
6.787000 31.005000 373.960000
7.216000 31.001000 373.919000
7.641000 30.984000 373.714000
8.070000 30.984000 373.704000
8.496000 30.973000 373.576000
8.925000 30.974000 373.588000
9.354000 30.973000 373.570000
9.782000 30.971000 373.552000
10.212000 30.974000 373.587000
10.641000 30.975000 373.596000
11.072000 30.979000 373.650000
11.504000 30.987000 373.746000
11.938000 31.000000 373.907000
12.370000 31.006000 373.977000
12.804000 31.017000 374.111000
13.240000 31.032000 374.282000
13.676000 31.046000 374.452000
14.113000 31.062000 374.652000
14.555000 31.087000 374.954000
14.997000 31.112000 375.248000
15.440000 31.136000 375.543000
15.885000 31.162000 375.860000
6.804000 31.513000 374.901000
7.230000 31.494000 374.673000
7.656000 31.476000 374.452000
8.088000 31.484000 374.549000
8.515000 31.472000 374.405000
8.945000 31.473000 374.423000
9.372000 31.461000 374.279000
9.804000 31.470000 374.381000
10.232000 31.464000 374.316000
10.666000 31.475000 374.441000
11.096000 31.476000 374.461000
11.531000 31.491000 374.636000
11.964000 31.498000 374.720000
12.399000 31.509000 374.846000
12.834000 31.519000 374.973000
13.273000 31.542000 375.239000
13.707000 31.548000 375.319000
14.153000 31.580000 375.699000
14.595000 31.604000 375.981000
15.037000 31.625000 376.233000
15.478000 31.643000 376.447000
15.930000 31.684000 376.936000
26.626000 39.135000 465.569000
27.134000 39.097000 465.119000
8.110000 32.000000 375.563000
8.539000 31.990000 375.442000
8.969000 31.990000 375.437000
9.398000 31.982000 375.349000
9.832000 31.991000 375.455000
10.261000 31.983000 375.365000
10.690000 31.979000 375.316000
11.125000 31.990000 375.445000
11.560000 32.002000 375.580000
11.996000 32.013000 375.708000
12.431000 32.021000 375.807000
12.869000 32.039000 376.015000
13.310000 32.061000 376.271000
13.747000 32.071000 376.398000
14.188000 32.092000 376.641000
25.662000 39.833000 467.485000
26.171000 39.790000 466.984000
26.679000 39.749000 466.502000
8.129000 32.507000 376.432000
8.558000 32.496000 376.311000
8.989000 32.491000 376.255000
9.425000 32.505000 376.416000
9.856000 32.502000 376.379000
10.291000 32.510000 376.470000
10.726000 32.518000 376.559000
11.161000 32.525000 376.650000
11.597000 32.534000 376.751000
12.036000 32.553000 376.969000
12.471000 32.557000 377.017000
12.912000 32.578000 377.259000
25.201000 40.490000 468.886000
25.714000 40.450000 468.423000
26.225000 40.410000 467.950000
26.732000 40.364000 467.426000
24.738000 41.155000 470.323000
25.252000 41.113000 469.843000
25.766000 41.071000 469.373000
26.277000 41.028000 468.873000
24.274000 41.826000 471.803000
24.790000 41.782000 471.306000
25.304000 41.737000 470.805000
25.816000 41.691000 470.285000
23.804000 42.496000 473.238000
24.323000 42.453000 472.750000
24.840000 42.409000 472.261000
25.354000 42.362000 471.739000
25.864000 42.311000 471.170000
-1.474000 36.550000 401.877000
-1.012000 36.522000 401.572000
-0.550000 36.492000 401.242000
-0.089000 36.466000 400.954000
0.371000 36.441000 400.679000
0.830000 36.416000 400.402000
1.290000 36.403000 400.261000
1.749000 36.388000 400.099000
2.207000 36.377000 399.982000
2.666000 36.366000 399.862000
3.124000 36.357000 399.754000
3.582000 36.341000 399.587000
4.041000 36.345000 399.628000
4.498000 36.332000 399.482000
4.958000 36.344000 399.613000
5.416000 36.338000 399.546000
23.337000 43.180000 474.783000
23.852000 43.127000 474.195000
24.370000 43.080000 473.675000
24.888000 43.035000 473.187000
25.404000 42.988000 472.673000
-3.333000 37.160000 403.499000
-2.868000 37.131000 403.177000
-2.402000 37.094000 402.782000
-1.938000 37.069000 402.505000
-1.475000 37.048000 402.281000
-1.013000 37.015000 401.914000
-0.551000 36.990000 401.645000
-0.089000 36.965000 401.377000
0.371000 36.938000 401.083000
0.831000 36.915000 400.833000
1.291000 36.906000 400.735000
1.751000 36.894000 400.602000
2.210000 36.885000 400.507000
2.669000 36.865000 400.285000
3.128000 36.857000 400.198000
3.587000 36.853000 400.164000
4.046000 36.847000 400.092000
4.503000 36.833000 399.948000
4.964000 36.847000 400.100000
5.423000 36.844000 400.058000
8.662000 36.944000 401.146000
9.127000 36.959000 401.314000
9.597000 36.995000 401.702000
10.069000 37.035000 402.134000
10.542000 37.074000 402.561000
11.014000 37.108000 402.932000
11.493000 37.161000 403.503000
11.967000 37.194000 403.861000
12.450000 37.252000 404.489000
22.862000 43.860000 476.242000
23.383000 43.811000 475.714000
23.901000 43.759000 475.151000
24.419000 43.710000 474.616000
24.936000 43.662000 474.091000
25.456000 43.619000 473.631000
-3.804000 37.697000 404.278000
-3.337000 37.662000 403.903000
-2.870000 37.625000 403.512000
-2.404000 37.590000 403.135000
-1.940000 37.568000 402.904000
-1.477000 37.542000 402.619000
-1.014000 37.514000 402.321000
-0.551000 37.494000 402.111000
-0.090000 37.464000 401.782000
0.372000 37.437000 401.496000
0.832000 37.416000 401.266000
1.293000 37.412000 401.225000
1.752000 37.391000 401.000000
2.213000 37.390000 400.991000
2.672000 37.371000 400.789000
3.132000 37.365000 400.720000
3.591000 37.352000 400.582000
4.050000 37.346000 400.520000
4.509000 37.339000 400.444000
4.971000 37.355000 400.616000
5.431000 37.357000 400.642000
5.892000 37.360000 400.672000
6.352000 37.360000 400.673000
6.815000 37.375000 400.835000
7.275000 37.378000 400.861000
7.743000 37.413000 401.233000
8.206000 37.425000 401.363000
8.675000 37.459000 401.733000
9.141000 37.477000 401.928000
9.609000 37.502000 402.194000
10.080000 37.537000 402.567000
10.556000 37.587000 403.108000
11.029000 37.621000 403.469000
11.507000 37.668000 403.975000
11.981000 37.700000 404.312000
12.464000 37.759000 404.946000
12.950000 37.819000 405.597000
13.447000 37.907000 406.532000
22.385000 44.547000 477.748000
22.905000 44.491000 477.151000
23.426000 44.440000 476.603000
23.948000 44.393000 476.097000
24.468000 44.345000 475.580000
24.986000 44.294000 475.034000
-4.275000 38.227000 404.977000
-3.807000 38.193000 404.623000
-3.339000 38.158000 404.252000
-2.872000 38.121000 403.861000
-2.407000 38.094000 403.571000
-1.942000 38.069000 403.304000
-1.478000 38.041000 403.005000
-1.015000 38.018000 402.762000
-0.552000 37.993000 402.505000
-0.090000 37.965000 402.206000
0.372000 37.945000 401.993000
0.833000 37.923000 401.756000
1.294000 37.910000 401.623000
1.755000 37.899000 401.505000
2.216000 37.896000 401.471000
2.675000 37.875000 401.246000
3.135000 37.871000 401.207000
3.594000 37.850000 400.989000
4.055000 37.851000 400.996000
4.514000 37.844000 400.920000
4.976000 37.856000 401.052000
5.438000 37.862000 401.110000
5.900000 37.875000 401.248000
6.361000 37.876000 401.258000
6.824000 37.890000 401.406000
7.287000 37.897000 401.484000
7.754000 37.929000 401.825000
8.218000 37.941000 401.948000
8.687000 37.972000 402.275000
9.151000 37.983000 402.393000
9.622000 38.018000 402.768000
10.094000 38.052000 403.122000
10.571000 38.103000 403.668000
11.044000 38.137000 404.027000
11.522000 38.184000 404.520000
12.000000 38.225000 404.954000
12.482000 38.277000 405.512000
12.970000 38.343000 406.213000
13.468000 38.434000 407.174000
22.429000 45.184000 478.686000
22.950000 45.126000 478.072000
23.471000 45.074000 477.522000
-3.342000 38.652000 404.565000
-2.875000 38.622000 404.244000
-2.410000 38.598000 403.999000
-1.944000 38.568000 403.683000
-1.480000 38.541000 403.403000
-1.016000 38.519000 403.174000
-0.552000 38.492000 402.884000
-0.090000 38.464000 402.596000
0.372000 38.445000 402.395000
0.834000 38.427000 402.210000
1.296000 38.416000 402.093000
1.757000 38.417000 402.098000
2.218000 38.402000 401.945000
2.679000 38.385000 401.769000
3.139000 38.372000 401.629000
3.598000 38.354000 401.438000
4.060000 38.361000 401.516000
4.520000 38.356000 401.462000
4.984000 38.372000 401.634000
5.445000 38.374000 401.655000
5.910000 38.400000 401.920000
6.374000 38.415000 402.079000
6.849000 38.489000 402.860000
7.321000 38.536000 403.348000
7.783000 38.532000 403.308000
8.236000 38.485000 402.818000
8.701000 38.496000 402.927000
9.164000 38.499000 402.960000
9.638000 38.541000 403.403000
10.108000 38.567000 403.669000
10.586000 38.621000 404.234000
11.061000 38.661000 404.655000
11.538000 38.702000 405.084000
12.017000 38.746000 405.541000
12.503000 38.809000 406.202000
12.990000 38.869000 406.837000
13.489000 38.962000 407.802000
21.414000 45.914000 480.572000
21.946000 45.871000 480.125000
22.473000 45.822000 479.610000
22.995000 45.766000 479.022000
-3.345000 39.153000 404.936000
-2.878000 39.125000 404.649000
-2.412000 39.097000 404.357000
-1.946000 39.064000 404.022000
-1.481000 39.047000 403.843000
-1.017000 39.021000 403.578000
-0.553000 38.990000 403.255000
-0.090000 38.964000 402.981000
0.373000 38.948000 402.821000
0.835000 38.927000 402.604000
1.297000 38.924000 402.567000
1.759000 38.915000 402.479000
2.221000 38.908000 402.405000
2.682000 38.893000 402.254000
3.142000 38.875000 402.059000
3.603000 38.863000 401.942000
4.064000 38.865000 401.963000
4.527000 38.870000 402.010000
4.992000 38.897000 402.294000
5.461000 38.953000 402.871000
5.955000 39.158000 404.990000
6.423000 39.175000 405.161000
6.894000 39.205000 405.481000
7.351000 39.164000 405.049000
7.809000 39.124000 404.643000
8.265000 39.083000 404.218000
8.723000 39.059000 403.962000
9.185000 39.049000 403.864000
9.650000 39.054000 403.914000
10.121000 39.083000 404.212000
10.600000 39.137000 404.775000
11.076000 39.178000 405.195000
11.559000 39.236000 405.794000
12.032000 39.259000 406.036000
12.524000 39.340000 406.873000
13.009000 39.395000 407.438000
13.507000 39.482000 408.343000
21.458000 46.562000 481.567000
21.987000 46.510000 481.026000
22.516000 46.462000 480.527000
23.041000 46.408000 479.976000
-3.348000 39.651000 405.281000
-2.881000 39.628000 405.037000
-2.414000 39.598000 404.732000
-1.948000 39.578000 404.531000
-1.483000 39.557000 404.312000
-1.018000 39.524000 403.977000
-0.553000 39.494000 403.671000
-0.090000 39.469000 403.416000
0.373000 39.451000 403.233000
0.836000 39.430000 403.019000
1.299000 39.435000 403.071000
1.761000 39.418000 402.892000
2.223000 39.418000 402.890000
2.685000 39.397000 402.685000
3.146000 39.384000 402.548000
3.607000 39.374000 402.440000
4.070000 39.382000 402.526000
4.535000 39.401000 402.722000
5.508000 39.752000 406.313000
5.976000 39.764000 406.432000
6.444000 39.769000 406.477000
6.908000 39.755000 406.341000
7.369000 39.726000 406.039000
7.825000 39.674000 405.514000
8.281000 39.626000 405.021000
8.738000 39.589000 404.642000
9.197000 39.565000 404.396000
9.665000 39.579000 404.539000
10.136000 39.605000 404.809000
10.616000 39.664000 405.405000
11.091000 39.697000 405.747000
11.574000 39.753000 406.318000
12.052000 39.792000 406.715000
12.544000 39.872000 407.538000
13.030000 39.927000 408.095000
13.527000 40.010000 408.949000
20.432000 47.298000 483.441000
20.966000 47.252000 482.962000
21.503000 47.212000 482.559000
22.031000 47.157000 481.999000
22.560000 47.107000 481.482000
-3.351000 40.159000 405.711000
-2.883000 40.128000 405.392000
-2.416000 40.099000 405.098000
-1.950000 40.082000 404.930000
-1.484000 40.058000 404.682000
-1.019000 40.025000 404.356000
-0.554000 39.992000 404.020000
-0.090000 39.972000 403.815000
0.374000 39.954000 403.635000
0.837000 39.944000 403.538000
1.300000 39.942000 403.512000
1.763000 39.929000 403.381000
2.226000 39.927000 403.363000
2.687000 39.901000 403.103000
3.150000 39.892000 403.013000
3.612000 39.883000 402.920000
4.075000 39.895000 403.043000
5.046000 40.256000 406.689000
5.514000 40.260000 406.724000
5.981000 40.260000 406.724000
6.448000 40.260000 406.723000
6.913000 40.250000 406.621000
7.375000 40.221000 406.330000
7.835000 40.187000 405.988000
8.288000 40.123000 405.346000
8.744000 40.082000 404.930000
9.206000 40.067000 404.782000
9.678000 40.099000 405.098000
10.149000 40.123000 405.344000
10.635000 40.200000 406.122000
11.109000 40.226000 406.386000
11.586000 40.263000 406.758000
12.070000 40.320000 407.335000
12.563000 40.401000 408.148000
13.051000 40.461000 408.755000
13.548000 40.543000 409.583000
20.475000 47.955000 484.467000
21.009000 47.905000 483.957000
21.545000 47.861000 483.513000
22.077000 47.809000 482.993000
22.605000 47.754000 482.434000
-3.356000 40.680000 406.262000
-2.887000 40.642000 405.882000
-2.419000 40.610000 405.555000
-1.952000 40.587000 405.328000
-1.486000 40.559000 405.044000
-1.020000 40.529000 404.754000
-0.555000 40.503000 404.490000
-0.090000 40.480000 404.265000
0.374000 40.463000 404.094000
0.838000 40.465000 404.115000
1.302000 40.456000 404.020000
1.765000 40.451000 403.967000
2.228000 40.434000 403.797000
2.691000 40.413000 403.595000
3.154000 40.407000 403.526000
3.616000 40.397000 403.433000
4.086000 40.467000 404.132000
4.574000 40.673000 406.191000
5.048000 40.737000 406.828000
5.514000 40.726000 406.714000
5.982000 40.733000 406.790000
6.446000 40.718000 406.634000
6.913000 40.717000 406.623000
7.375000 40.690000 406.356000
7.836000 40.661000 406.068000
8.290000 40.602000 405.479000
8.749000 40.569000 405.153000
9.214000 40.570000 405.158000
9.694000 40.630000 405.758000
10.166000 40.655000 406.003000
10.650000 40.723000 406.689000
11.126000 40.756000 407.011000
11.604000 40.793000 407.381000
12.085000 40.838000 407.831000
12.584000 40.939000 408.843000
13.077000 41.011000 409.568000
19.981000 48.663000 485.978000
20.517000 48.611000 485.466000
21.052000 48.558000 484.932000
21.587000 48.509000 484.445000
22.121000 48.461000 483.966000
-3.360000 41.197000 406.752000
-2.890000 41.160000 406.389000
-2.422000 41.125000 406.042000
-1.954000 41.098000 405.780000
-1.487000 41.067000 405.476000
-1.021000 41.038000 405.190000
-0.555000 41.011000 404.918000
-0.090000 40.979000 404.608000
0.374000 40.973000 404.542000
0.839000 40.974000 404.552000
1.304000 40.977000 404.586000
1.768000 40.964000 404.456000
2.231000 40.944000 404.262000
2.694000 40.921000 404.027000
3.157000 40.912000 403.938000
3.620000 40.907000 403.890000
4.095000 41.021000 405.021000
4.573000 41.135000 406.147000
5.044000 41.175000 406.537000
5.510000 41.165000 406.438000
5.978000 41.177000 406.560000
6.443000 41.164000 406.432000
6.910000 41.166000 406.453000
7.372000 41.141000 406.204000
7.833000 41.113000 405.923000
8.290000 41.066000 405.467000
8.754000 41.056000 405.366000
9.226000 41.086000 405.656000
9.707000 41.151000 406.302000
10.184000 41.195000 406.740000
10.666000 41.251000 407.293000
11.140000 41.274000 407.514000
11.623000 41.327000 408.040000
12.104000 41.371000 408.473000
12.608000 41.486000 409.607000
20.019000 49.313000 486.894000
20.559000 49.268000 486.446000
21.096000 49.218000 485.952000
21.631000 49.167000 485.446000
22.164000 49.112000 484.908000
-2.895000 41.688000 406.993000
-2.425000 41.653000 406.647000
-1.957000 41.618000 406.305000
-1.489000 41.581000 405.948000
-1.022000 41.548000 405.627000
-0.556000 41.517000 405.324000
-0.090000 41.485000 405.011000
0.375000 41.494000 405.092000
0.840000 41.496000 405.115000
1.306000 41.505000 405.205000
1.770000 41.479000 404.950000
2.233000 41.453000 404.700000
2.696000 41.425000 404.425000
3.160000 41.422000 404.394000
3.626000 41.434000 404.506000
4.097000 41.506000 405.213000
4.568000 41.551000 405.654000
5.038000 41.593000 406.060000
5.505000 41.597000 406.105000
5.973000 41.608000 406.208000
6.439000 41.601000 406.141000
6.905000 41.602000 406.151000
7.369000 41.589000 406.020000
7.832000 41.570000 405.833000
8.292000 41.542000 405.561000
8.762000 41.562000 405.759000
9.238000 41.608000 406.210000
9.722000 41.683000 406.945000
10.203000 41.739000 407.490000
10.684000 41.790000 407.986000
11.153000 41.793000 408.014000
11.639000 41.855000 408.620000
19.521000 50.031000 488.444000
20.059000 49.974000 487.885000
20.601000 49.928000 487.436000
21.138000 49.875000 486.919000
21.675000 49.825000 486.426000
-2.429000 42.178000 407.204000
-1.959000 42.137000 406.810000
-1.491000 42.099000 406.442000
-1.023000 42.065000 406.121000
-0.556000 42.023000 405.710000
-0.090000 41.995000 405.445000
0.375000 42.008000 405.569000
0.842000 42.037000 405.848000
1.307000 42.030000 405.780000
1.772000 41.996000 405.450000
2.236000 41.959000 405.095000
2.699000 41.932000 404.835000
3.164000 41.936000 404.871000
3.631000 41.955000 405.056000
4.099000 41.984000 405.336000
4.568000 42.018000 405.661000
5.037000 42.050000 405.976000
5.504000 42.056000 406.035000
5.972000 42.067000 406.139000
6.439000 42.069000 406.153000
6.904000 42.061000 406.082000
7.370000 42.058000 406.045000
7.833000 42.043000 405.905000
8.302000 42.056000 406.032000
8.774000 42.083000 406.292000
9.251000 42.135000 406.792000
9.741000 42.233000 407.735000
10.225000 42.299000 408.377000
10.702000 42.328000 408.655000
11.174000 42.340000 408.769000
11.694000 42.522000 410.532000
12.184000 42.588000 411.165000
19.563000 50.701000 489.496000
20.102000 50.642000 488.926000
20.644000 50.594000 488.459000
21.181000 50.537000 487.911000
21.717000 50.482000 487.377000
-1.963000 42.678000 407.514000
-1.493000 42.634000 407.097000
-1.025000 42.589000 406.667000
-0.557000 42.545000 406.252000
-0.090000 42.520000 406.011000
0.376000 42.554000 406.331000
0.844000 42.601000 406.787000
1.310000 42.572000 406.509000
1.774000 42.517000 405.982000
2.238000 42.467000 405.507000
2.701000 42.430000 405.154000
3.168000 42.448000 405.319000
3.635000 42.470000 405.528000
4.105000 42.512000 405.931000
4.570000 42.505000 405.861000
5.040000 42.538000 406.183000
5.505000 42.526000 406.063000
5.975000 42.552000 406.315000
6.440000 42.543000 406.227000
6.907000 42.550000 406.295000
7.373000 42.543000 406.230000
7.846000 42.579000 406.571000
8.315000 42.589000 406.671000
8.789000 42.625000 407.013000
9.263000 42.655000 407.301000
9.772000 42.834000 409.007000
10.253000 42.881000 409.460000
10.734000 42.928000 409.907000
11.230000 43.022000 410.805000
11.718000 43.082000 411.379000
18.519000 51.486000 491.623000
19.061000 51.423000 491.023000
19.605000 51.371000 490.524000
20.145000 51.312000 489.964000
20.685000 51.256000 489.423000
21.223000 51.199000 488.884000
-1.966000 43.217000 408.190000
-1.496000 43.175000 407.796000
-1.027000 43.152000 407.571000
-0.558000 43.109000 407.167000
-0.091000 43.057000 406.682000
0.377000 43.138000 407.440000
0.846000 43.184000 407.877000
1.312000 43.112000 407.195000
1.776000 43.036000 406.477000
2.240000 42.966000 405.819000
2.703000 42.919000 405.379000
3.171000 42.956000 405.726000
3.640000 42.999000 406.134000
4.110000 43.032000 406.443000
4.576000 43.028000 406.408000
5.043000 43.030000 406.422000
5.510000 43.031000 406.433000
5.978000 43.039000 406.509000
6.445000 43.043000 406.551000
6.914000 43.057000 406.682000
7.386000 43.084000 406.928000
7.860000 43.124000 407.308000
8.329000 43.129000 407.356000
8.800000 43.144000 407.500000
9.286000 43.230000 408.310000
9.808000 43.464000 410.518000
10.269000 43.422000 410.124000
10.765000 43.524000 411.087000
18.012000 52.217000 493.193000
18.556000 52.153000 492.591000
19.100000 52.095000 492.042000
19.645000 52.040000 491.525000
20.189000 51.988000 491.030000
20.728000 51.927000 490.459000
21.267000 51.869000 489.906000
-1.498000 43.699000 408.313000
-1.028000 43.688000 408.214000
-0.559000 43.658000 407.931000
-0.091000 43.681000 408.146000
0.378000 43.761000 408.896000
0.848000 43.747000 408.762000
1.314000 43.658000 407.926000
1.779000 43.556000 406.976000
2.241000 43.467000 406.147000
2.704000 43.414000 405.646000
3.177000 43.506000 406.512000
3.650000 43.583000 407.232000
4.117000 43.578000 407.185000
4.583000 43.565000 407.060000
5.050000 43.561000 407.021000
5.517000 43.551000 406.934000
5.988000 43.579000 407.191000
6.457000 43.590000 407.295000
6.933000 43.642000 407.782000
7.408000 43.683000 408.168000
7.880000 43.703000 408.350000
8.351000 43.710000 408.420000
8.830000 43.764000 408.925000
9.350000 44.000000 411.130000
9.812000 43.953000 410.686000
18.046000 52.882000 494.117000
18.593000 52.824000 493.577000
19.139000 52.766000 493.037000
19.686000 52.716000 492.570000
20.230000 52.658000 492.029000
20.773000 52.605000 491.527000
21.314000 52.547000 490.984000
2.714000 44.042000 407.152000
3.190000 44.148000 408.134000
3.657000 44.137000 408.028000
4.127000 44.151000 408.155000
4.593000 44.126000 407.923000
5.062000 44.130000 407.966000
5.532000 44.144000 408.094000
6.008000 44.196000 408.576000
6.477000 44.198000 408.593000
6.960000 44.281000 409.360000
7.426000 44.260000 409.166000
7.896000 44.257000 409.142000
8.360000 44.228000 408.867000
8.851000 44.335000 409.856000
17.535000 53.622000 495.718000
18.082000 53.557000 495.112000
18.631000 53.500000 494.589000
19.179000 53.445000 494.074000
19.727000 53.393000 493.593000
20.274000 53.340000 493.107000
20.819000 53.286000 492.610000
21.356000 53.215000 491.950000
21.891000 53.142000 491.277000
2.719000 44.585000 407.838000
3.193000 44.669000 408.605000
3.663000 44.673000 408.646000
4.134000 44.696000 408.851000
4.601000 44.675000 408.660000
5.075000 44.708000 408.967000
5.541000 44.686000 408.762000
6.019000 44.751000 409.356000
6.483000 44.708000 408.967000
6.966000 44.794000 409.752000
7.438000 44.802000 409.822000
7.910000 44.809000 409.892000
8.373000 44.767000 409.509000
17.024000 54.377000 497.412000
17.571000 54.301000 496.715000
18.120000 54.239000 496.149000
18.668000 54.174000 495.559000
19.216000 54.116000 495.025000
19.765000 54.064000 494.550000
20.317000 54.021000 494.156000
20.858000 53.952000 493.521000
21.398000 53.886000 492.924000
2.728000 45.202000 409.188000
3.195000 45.163000 408.834000
3.666000 45.181000 408.995000
17.606000 54.982000 497.721000
18.158000 54.924000 497.196000
18.708000 54.861000 496.622000
19.260000 54.808000 496.147000
19.809000 54.752000 495.633000
20.355000 54.689000 495.070000
20.902000 54.634000 494.571000
21.446000 54.574000 494.025000
19.300000 55.494000 497.187000
19.846000 55.426000 496.577000
20.395000 55.366000 496.039000
20.944000 55.314000 495.570000
0.466000 84.041000 504.044000
1.047000 84.210000 505.056000
1.630000 84.349000 505.893000
0.466000 84.579000 503.801000
1.047000 84.767000 504.920000
1.629000 84.903000 505.732000
-2.412000 84.674000 500.943000
-1.838000 84.717000 501.195000
-1.264000 84.832000 501.874000
-0.689000 84.895000 502.247000
-0.112000 85.059000 503.219000
0.466000 85.149000 503.753000
1.047000 85.371000 505.068000
1.629000 85.474000 505.674000
-26.462000 84.899000 498.882000
-25.857000 84.792000 498.253000
-25.278000 84.770000 498.127000
-24.686000 84.700000 497.715000
-24.101000 84.654000 497.446000
-23.515000 84.601000 497.133000
-2.411000 85.214000 500.733000
-1.838000 85.292000 501.196000
-1.264000 85.381000 501.716000
-0.689000 85.466000 502.216000
-0.112000 85.650000 503.296000
0.466000 85.734000 503.790000
1.047000 85.947000 505.043000
1.629000 86.062000 505.718000
-26.462000 85.471000 498.877000
-25.856000 85.361000 498.237000
-25.279000 85.344000 498.137000
-24.683000 85.261000 497.654000
-24.100000 85.220000 497.412000
-23.512000 85.159000 497.056000
-22.931000 85.123000 496.851000
-22.351000 85.088000 496.641000
-21.775000 85.063000 496.495000
-21.191000 85.009000 496.184000
-20.611000 84.966000 495.929000
-20.036000 84.941000 495.788000
-19.459000 84.907000 495.586000
-18.888000 84.901000 495.550000
-18.314000 84.878000 495.419000
-17.739000 84.846000 495.234000
-17.164000 84.817000 495.060000
-16.590000 84.789000 494.897000
-16.016000 84.758000 494.717000
-15.447000 84.752000 494.684000
-14.883000 84.774000 494.809000
-2.983000 85.676000 500.074000
-2.411000 85.767000 500.605000
-1.838000 85.848000 501.081000
-1.264000 85.971000 501.799000
-0.689000 86.052000 502.273000
-0.112000 86.225000 503.279000
0.466000 86.322000 503.847000
1.047000 86.507000 504.924000
1.630000 86.678000 505.923000
-26.462000 86.043000 498.875000
-25.857000 85.938000 498.264000
-25.280000 85.921000 498.165000
-24.686000 85.844000 497.719000
-24.102000 85.801000 497.469000
-23.514000 85.740000 497.117000
-22.935000 85.708000 496.929000
-22.352000 85.660000 496.651000
-21.775000 85.635000 496.509000
-21.192000 85.584000 496.210000
-20.616000 85.557000 496.057000
-20.043000 85.542000 495.968000
-19.463000 85.496000 495.701000
-18.897000 85.510000 495.783000
-18.318000 85.465000 495.524000
-17.750000 85.469000 495.546000
-17.174000 85.436000 495.357000
-16.605000 85.431000 495.325000
-16.029000 85.396000 495.122000
-15.461000 85.395000 495.118000
-14.886000 85.359000 494.911000
-14.320000 85.376000 495.005000
-13.748000 85.353000 494.875000
-13.188000 85.404000 495.167000
-10.355000 85.485000 495.639000
-9.796000 85.577000 496.170000
-9.227000 85.586000 496.223000
-8.663000 85.643000 496.555000
-8.097000 85.684000 496.794000
-7.530000 85.726000 497.034000
-4.123000 86.080000 499.090000
-3.554000 86.188000 499.715000
-2.982000 86.247000 500.056000
-2.411000 86.341000 500.603000
-1.838000 86.434000 501.142000
-1.264000 86.561000 501.875000
-0.689000 86.640000 502.337000
-0.112000 86.805000 503.294000
0.466000 86.932000 504.027000
1.047000 87.112000 505.073000
1.630000 87.276000 506.023000
-27.057000 86.688000 499.288000
-26.466000 86.630000 498.955000
-25.856000 86.506000 498.244000
-25.282000 86.499000 498.200000
-24.689000 86.424000 497.771000
-24.102000 86.372000 497.468000
-23.518000 86.324000 497.191000
-22.936000 86.282000 496.951000
-22.353000 86.235000 496.678000
-21.775000 86.203000 496.494000
-21.195000 86.164000 496.274000
-20.618000 86.135000 496.106000
-20.045000 86.117000 496.002000
-19.465000 86.072000 495.743000
-18.897000 86.078000 495.779000
-18.321000 86.046000 495.592000
-17.750000 86.038000 495.547000
-17.178000 86.023000 495.462000
-16.610000 86.027000 495.484000
-16.038000 86.011000 495.393000
-15.469000 86.010000 495.385000
-14.898000 85.996000 495.305000
-14.328000 85.993000 495.286000
-13.765000 86.025000 495.474000
-13.194000 86.014000 495.406000
-12.625000 86.013000 495.400000
-12.061000 86.048000 495.606000
-11.494000 86.062000 495.682000
-10.930000 86.101000 495.910000
-10.362000 86.112000 495.972000
-9.798000 86.163000 496.265000
-9.231000 86.186000 496.398000
-8.666000 86.235000 496.682000
-8.098000 86.270000 496.880000
-7.531000 86.306000 497.089000
-6.965000 86.360000 497.402000
-6.397000 86.412000 497.699000
-5.830000 86.477000 498.076000
-5.261000 86.517000 498.305000
-4.693000 86.605000 498.813000
-4.123000 86.661000 499.136000
-3.555000 86.773000 499.778000
-2.983000 86.832000 500.119000
-2.411000 86.937000 500.722000
-1.838000 87.026000 501.238000
-1.264000 87.142000 501.907000
-0.689000 87.225000 502.382000
-0.112000 87.399000 503.385000
0.466000 87.508000 504.015000
1.047000 87.683000 505.020000
1.631000 87.871000 506.101000
-26.469000 87.211000 499.002000
-25.860000 87.091000 498.318000
-25.285000 87.082000 498.263000
-24.690000 86.999000 497.790000
-24.105000 86.951000 497.516000
-23.520000 86.901000 497.230000
-22.938000 86.861000 496.999000
-22.355000 86.811000 496.711000
-21.781000 86.798000 496.638000
-21.197000 86.743000 496.322000
-20.620000 86.713000 496.150000
-20.045000 86.688000 496.010000
-19.470000 86.662000 495.863000
-18.899000 86.658000 495.836000
-18.321000 86.619000 495.613000
-17.753000 86.624000 495.643000
-17.179000 86.598000 495.496000
-16.610000 86.597000 495.490000
-16.039000 86.588000 495.439000
-15.470000 86.586000 495.425000
-14.900000 86.578000 495.379000
-14.335000 86.604000 495.528000
-13.766000 86.600000 495.508000
-13.200000 86.624000 495.640000
-12.630000 86.615000 495.594000
-12.065000 86.646000 495.770000
-11.495000 86.640000 495.734000
-10.930000 86.676000 495.941000
-10.363000 86.697000 496.059000
-9.799000 86.740000 496.309000
-9.232000 86.768000 496.469000
-8.666000 86.808000 496.694000
-8.098000 86.833000 496.841000
-7.532000 86.886000 497.144000
-6.966000 86.944000 497.473000
-6.398000 86.995000 497.764000
-5.831000 87.064000 498.163000
-5.261000 87.102000 498.377000
-4.694000 87.198000 498.930000
-4.124000 87.249000 499.217000
-3.554000 87.343000 499.758000
-2.983000 87.417000 500.181000
-2.412000 87.527000 500.808000
-1.839000 87.612000 501.298000
-1.265000 87.725000 501.945000
-0.689000 87.828000 502.531000
-0.112000 88.000000 503.518000
0.467000 88.102000 504.099000
1.048000 88.296000 505.211000
1.632000 88.512000 506.444000
-26.473000 87.799000 499.088000
-25.866000 87.684000 498.431000
-25.288000 87.663000 498.315000
-24.690000 87.573000 497.805000
-24.105000 87.525000 497.530000
-23.522000 87.479000 497.266000
-22.940000 87.437000 497.032000
-22.357000 87.391000 496.770000
-21.781000 87.370000 496.646000
-21.199000 87.320000 496.363000
-20.622000 87.292000 496.203000
-20.048000 87.271000 496.085000
-19.469000 87.230000 495.853000
-18.901000 87.234000 495.875000
-18.325000 87.203000 495.697000
-17.755000 87.198000 495.673000
-17.181000 87.178000 495.559000
-16.612000 87.176000 495.546000
-16.040000 87.163000 495.469000
-15.474000 87.174000 495.535000
-14.903000 87.165000 495.481000
-14.338000 87.190000 495.623000
-13.765000 87.165000 495.486000
-13.200000 87.193000 495.642000
-12.630000 87.181000 495.575000
-12.068000 87.232000 495.864000
-11.496000 87.219000 495.789000
-10.933000 87.269000 496.075000
-10.365000 87.276000 496.115000
-9.801000 87.330000 496.423000
-9.234000 87.358000 496.579000
-8.667000 87.388000 496.750000
-8.099000 87.416000 496.911000
-7.533000 87.470000 497.215000
-6.966000 87.526000 497.535000
-6.399000 87.581000 497.850000
-5.833000 87.660000 498.298000
-5.263000 87.695000 498.498000
-4.696000 87.795000 499.064000
-4.125000 87.847000 499.358000
-3.555000 87.934000 499.852000
-2.984000 88.015000 500.315000
-2.412000 88.121000 500.920000
-1.839000 88.215000 501.452000
-1.265000 88.337000 502.147000
-0.689000 88.434000 502.694000
-0.112000 88.616000 503.731000
0.467000 88.746000 504.469000
1.049000 88.963000 505.704000
1.633000 89.138000 506.699000
-26.474000 88.375000 499.101000
-25.866000 88.257000 498.437000
-25.296000 88.265000 498.480000
-24.694000 88.159000 497.885000
-24.111000 88.118000 497.654000
-23.525000 88.064000 497.349000
-22.945000 88.030000 497.154000
-22.357000 87.963000 496.774000
-21.783000 87.945000 496.676000
-21.199000 87.891000 496.373000
-20.625000 87.872000 496.260000
-20.048000 87.841000 496.086000
-19.472000 87.811000 495.918000
-18.903000 87.816000 495.946000
-18.328000 87.787000 495.781000
-17.758000 87.785000 495.773000
-17.182000 87.750000 495.576000
-16.613000 87.752000 495.584000
-16.040000 87.728000 495.449000
-15.473000 87.742000 495.530000
-14.906000 87.750000 495.573000
-14.337000 87.753000 495.591000
-13.766000 87.742000 495.530000
-13.203000 87.782000 495.752000
-12.632000 87.767000 495.671000
-12.067000 87.798000 495.847000
-11.496000 87.789000 495.792000
-10.936000 87.857000 496.180000
-10.367000 87.869000 496.247000
-9.802000 87.912000 496.488000
-9.234000 87.931000 496.594000
-8.668000 87.976000 496.848000
-8.102000 88.016000 497.078000
-7.535000 88.070000 497.382000
-6.968000 88.118000 497.652000
-6.400000 88.169000 497.941000
-5.833000 88.239000 498.333000
-5.264000 88.283000 498.586000
-4.696000 88.380000 499.129000
-4.126000 88.437000 499.454000
-3.555000 88.516000 499.900000
-2.984000 88.606000 500.406000
-2.413000 88.706000 500.973000
-1.839000 88.809000 501.552000
-1.266000 88.945000 502.323000
-0.689000 89.042000 502.868000
-0.112000 89.219000 503.868000
0.467000 89.350000 504.611000
-26.480000 88.968000 499.217000
-25.877000 88.865000 498.639000
-25.302000 88.857000 498.593000
-24.701000 88.757000 498.031000
-24.120000 88.720000 497.824000
-23.533000 88.664000 497.508000
-22.949000 88.614000 497.227000
-22.362000 88.551000 496.876000
-21.786000 88.529000 496.751000
-21.203000 88.476000 496.455000
-20.626000 88.448000 496.299000
-20.050000 88.421000 496.146000
-19.474000 88.389000 495.965000
-18.907000 88.403000 496.044000
-18.329000 88.364000 495.823000
-17.761000 88.368000 495.850000
-17.184000 88.331000 495.643000
-16.614000 88.323000 495.593000
-16.043000 88.316000 495.559000
-15.478000 88.338000 495.683000
-14.909000 88.336000 495.666000
-14.342000 88.353000 495.767000
-13.771000 88.338000 495.678000
-13.206000 88.371000 495.865000
-12.636000 88.366000 495.835000
-12.070000 88.388000 495.962000
-11.500000 88.385000 495.945000
-10.938000 88.442000 496.266000
-10.368000 88.444000 496.272000
-9.803000 88.489000 496.527000
-9.237000 88.525000 496.728000
-8.670000 88.558000 496.915000
-8.103000 88.601000 497.159000
-7.537000 88.659000 497.479000
-6.969000 88.705000 497.739000
-6.402000 88.756000 498.028000
-5.834000 88.828000 498.429000
-5.265000 88.873000 498.682000
-4.697000 88.975000 499.254000
-4.127000 89.041000 499.627000
-3.557000 89.130000 500.123000
-2.986000 89.216000 500.605000
-2.413000 89.313000 501.152000
-1.840000 89.419000 501.747000
-1.266000 89.558000 502.526000
-0.690000 89.662000 503.108000
-0.112000 89.834000 504.077000
-26.489000 89.573000 499.392000
-25.888000 89.477000 498.859000
-25.310000 89.458000 498.750000
-24.708000 89.352000 498.158000
-24.128000 89.324000 498.005000
-23.538000 89.255000 497.617000
-22.956000 89.212000 497.378000
-22.371000 89.159000 497.082000
-21.792000 89.125000 496.895000
-21.208000 89.066000 496.564000
-20.634000 89.049000 496.470000
-20.055000 89.011000 496.259000
-19.480000 88.987000 496.127000
-18.909000 88.979000 496.083000
-18.334000 88.954000 495.944000
-17.764000 88.953000 495.936000
-17.190000 88.929000 495.802000
-16.619000 88.923000 495.767000
-16.049000 88.918000 495.742000
-15.482000 88.928000 495.797000
-14.912000 88.923000 495.767000
-14.343000 88.929000 495.803000
-13.773000 88.924000 495.771000
-13.210000 88.965000 496.004000
-12.638000 88.945000 495.894000
-12.073000 88.978000 496.076000
-11.505000 88.991000 496.149000
-10.941000 89.038000 496.408000
-10.371000 89.044000 496.440000
-9.804000 89.070000 496.586000
-9.237000 89.103000 496.770000
-8.672000 89.151000 497.038000
-8.105000 89.200000 497.312000
-7.539000 89.252000 497.604000
-6.971000 89.300000 497.871000
-6.403000 89.350000 498.149000
-5.835000 89.415000 498.514000
-5.267000 89.480000 498.872000
-4.698000 89.565000 499.350000
-4.129000 89.648000 499.812000
-3.559000 89.745000 500.350000
-2.987000 89.826000 500.805000
-2.414000 89.916000 501.305000
-1.841000 90.027000 501.921000
-1.267000 90.173000 502.738000
-0.690000 90.281000 503.339000
-0.112000 90.485000 504.479000
-26.499000 90.179000 499.572000
-25.900000 90.093000 499.095000
-25.318000 90.061000 498.919000
-24.718000 89.959000 498.354000
-24.132000 89.910000 498.085000
-23.543000 89.845000 497.724000
-22.962000 89.808000 497.519000
-22.377000 89.751000 497.201000
-21.799000 89.723000 497.048000
-21.211000 89.652000 496.651000
-20.641000 89.651000 496.650000
-20.062000 89.611000 496.427000
-19.486000 89.584000 496.277000
-18.914000 89.575000 496.227000
-18.338000 89.543000 496.047000
-17.768000 89.542000 496.045000
-17.194000 89.519000 495.914000
-16.624000 89.514000 495.891000
-16.053000 89.510000 495.867000
-15.483000 89.504000 495.835000
-14.915000 89.514000 495.888000
-14.348000 89.526000 495.955000
-13.776000 89.514000 495.890000
-13.212000 89.547000 496.072000
-12.640000 89.533000 495.994000
-12.076000 89.569000 496.196000
-11.507000 89.577000 496.238000
-10.943000 89.628000 496.519000
-10.377000 89.658000 496.688000
-9.809000 89.682000 496.819000
-9.241000 89.710000 496.977000
-8.674000 89.743000 497.158000
-8.107000 89.792000 497.428000
-7.541000 89.853000 497.765000
-6.974000 89.909000 498.077000
-6.405000 89.954000 498.325000
-5.837000 90.016000 498.667000
-5.269000 90.094000 499.101000
-4.700000 90.172000 499.536000
-4.131000 90.265000 500.050000
-3.560000 90.346000 500.496000
-2.988000 90.434000 500.987000
-2.415000 90.536000 501.552000
-1.842000 90.641000 502.131000
-1.267000 90.808000 503.055000
-0.690000 90.907000 503.603000
-0.112000 91.130000 504.839000
-25.914000 90.712000 499.349000
-25.328000 90.667000 499.104000
-24.725000 90.560000 498.513000
-24.142000 90.519000 498.285000
-23.551000 90.447000 497.892000
-22.968000 90.402000 497.644000
-22.385000 90.354000 497.376000
-21.807000 90.328000 497.236000
-21.220000 90.259000 496.856000
-20.649000 90.257000 496.845000
-20.069000 90.213000 496.603000
-19.494000 90.192000 496.488000
-18.919000 90.167000 496.350000
-18.344000 90.146000 496.235000
-17.772000 90.133000 496.160000
-17.199000 90.113000 496.053000
-16.628000 90.109000 496.028000
-16.056000 90.093000 495.940000
-15.489000 90.109000 496.027000
-14.918000 90.103000 495.994000
-14.352000 90.125000 496.118000
-13.781000 90.112000 496.045000
-13.215000 90.137000 496.184000
-12.643000 90.121000 496.097000
-12.079000 90.168000 496.355000
-11.511000 90.183000 496.434000
-10.946000 90.220000 496.643000
-10.378000 90.244000 496.772000
-9.810000 90.263000 496.877000
-9.245000 90.314000 497.159000
-8.678000 90.359000 497.408000
-8.110000 90.396000 497.607000
-7.544000 90.452000 497.920000
-6.976000 90.505000 498.208000
-6.407000 90.556000 498.491000
-5.840000 90.630000 498.896000
-5.271000 90.696000 499.259000
-4.702000 90.782000 499.732000
-4.132000 90.876000 500.251000
-3.561000 90.964000 500.734000
-2.990000 91.058000 501.252000
-2.417000 91.173000 501.889000
-1.843000 91.279000 502.473000
-1.268000 91.451000 503.417000
-0.691000 91.563000 504.032000
-25.927000 91.332000 499.606000
-25.335000 91.267000 499.250000
-24.739000 91.182000 498.786000
-24.155000 91.139000 498.546000
-23.559000 91.050000 498.062000
-22.978000 91.014000 497.864000
-22.393000 90.959000 497.564000
-21.816000 90.934000 497.427000
-21.229000 90.866000 497.055000
-20.659000 90.873000 497.094000
-20.076000 90.818000 496.792000
-19.504000 90.809000 496.742000
-18.926000 90.774000 496.551000
-18.350000 90.745000 496.395000
-17.779000 90.739000 496.361000
-17.205000 90.715000 496.230000
-16.636000 90.722000 496.266000
-16.061000 90.693000 496.108000
-15.495000 90.714000 496.223000
-14.922000 90.694000 496.113000
-14.357000 90.721000 496.261000
-13.785000 90.710000 496.201000
-13.221000 90.748000 496.410000
-12.649000 90.734000 496.335000
-12.085000 90.779000 496.579000
-11.516000 90.790000 496.641000
-10.951000 90.830000 496.855000
-10.382000 90.849000 496.960000
-9.814000 90.873000 497.096000
-9.248000 90.919000 497.342000
-8.682000 90.970000 497.625000
-8.113000 91.002000 497.797000
-7.547000 91.059000 498.110000
-6.978000 91.108000 498.381000
-6.411000 91.174000 498.742000
-5.842000 91.241000 499.107000
-5.273000 91.312000 499.497000
-4.704000 91.398000 499.963000
-4.134000 91.484000 500.436000
-3.563000 91.570000 500.907000
-2.991000 91.677000 501.491000
-2.419000 91.806000 502.195000
-1.844000 91.917000 502.806000
-1.269000 92.098000 503.792000
-25.942000 91.961000 499.904000
-25.348000 91.887000 499.504000
-24.752000 91.804000 499.050000
-24.169000 91.767000 498.850000
-23.575000 91.684000 498.396000
-22.989000 91.629000 498.102000
-22.404000 91.575000 497.808000
-21.824000 91.539000 497.613000
-21.241000 91.490000 497.346000
-20.668000 91.484000 497.310000
-20.086000 91.431000 497.023000
-19.512000 91.417000 496.948000
-18.934000 91.380000 496.744000
-18.360000 91.363000 496.656000
-17.786000 91.346000 496.563000
-17.212000 91.324000 496.444000
-16.643000 91.327000 496.461000
-16.068000 91.303000 496.327000
-15.502000 91.326000 496.453000
-14.928000 91.302000 496.322000
-14.364000 91.341000 496.532000
-13.792000 91.323000 496.437000
-13.226000 91.351000 496.588000
-12.654000 91.339000 496.523000
-12.089000 91.379000 496.741000
-11.520000 91.391000 496.806000
-10.954000 91.431000 497.023000
-10.387000 91.457000 497.162000
-9.820000 91.499000 497.394000
-9.252000 91.531000 497.565000
-8.686000 91.582000 497.844000
-8.116000 91.605000 497.972000
-7.549000 91.660000 498.266000
-6.981000 91.719000 498.587000
-6.414000 91.800000 499.031000
-5.845000 91.858000 499.345000
-5.277000 91.943000 499.806000
-4.706000 92.018000 500.216000
-4.136000 92.108000 500.701000
-3.565000 92.215000 501.286000
-2.993000 92.317000 501.838000
-2.420000 92.441000 502.515000
-1.845000 92.557000 503.146000
-1.270000 92.739000 504.136000
-24.765000 92.426000 499.315000
-24.183000 92.392000 499.132000
-23.585000 92.296000 498.616000
-23.001000 92.248000 498.357000
-22.416000 92.194000 498.065000
-21.834000 92.154000 497.844000
-21.253000 92.115000 497.635000
-20.677000 92.095000 497.529000
-20.094000 92.039000 497.225000
-19.522000 92.032000 497.190000
-18.939000 91.977000 496.892000
-18.368000 91.976000 496.883000
-17.794000 91.956000 496.775000
-17.218000 91.928000 496.628000
-16.652000 91.949000 496.741000
-16.076000 91.916000 496.560000
-15.510000 91.940000 496.689000
-14.934000 91.907000 496.511000
-14.371000 91.955000 496.771000
-13.796000 91.923000 496.598000
-13.232000 91.964000 496.820000
-12.660000 91.957000 496.782000
-12.095000 91.996000 496.991000
-11.526000 92.009000 497.061000
-10.960000 92.051000 497.291000
-10.392000 92.073000 497.407000
-9.826000 92.123000 497.679000
-9.255000 92.127000 497.698000
-8.690000 92.203000 498.110000
-8.121000 92.235000 498.284000
-7.554000 92.290000 498.584000
-6.985000 92.346000 498.884000
-6.419000 92.434000 499.358000
-5.847000 92.470000 499.551000
-5.280000 92.576000 500.123000
-4.710000 92.662000 500.590000
-4.139000 92.750000 501.068000
-3.568000 92.867000 501.698000
-2.995000 92.966000 502.236000
-2.422000 93.109000 503.005000
-1.847000 93.233000 503.677000
-1.271000 93.393000 504.538000
-24.780000 93.053000 499.604000
-24.198000 93.022000 499.437000
-23.600000 92.928000 498.931000
-23.016000 92.882000 498.684000
-22.431000 92.831000 498.411000
-21.844000 92.770000 498.082000
-21.267000 92.747000 497.961000
-20.686000 92.705000 497.736000
-20.105000 92.659000 497.487000
-19.529000 92.640000 497.385000
-18.950000 92.600000 497.173000
-18.377000 92.591000 497.121000
-17.803000 92.572000 497.022000
-17.227000 92.546000 496.879000
-16.661000 92.567000 496.996000
-16.082000 92.525000 496.767000
-15.517000 92.552000 496.915000
-14.940000 92.512000 496.701000
-14.378000 92.565000 496.985000
-13.801000 92.529000 496.790000
-13.238000 92.575000 497.039000
-12.666000 92.566000 496.988000
-12.100000 92.602000 497.182000
-11.530000 92.608000 497.216000
-10.966000 92.672000 497.557000
-10.396000 92.683000 497.619000
-9.831000 92.746000 497.954000
-9.260000 92.749000 497.971000
-8.694000 92.813000 498.317000
-8.125000 92.852000 498.524000
-7.559000 92.924000 498.913000
-6.989000 92.969000 499.153000
-6.423000 93.066000 499.672000
-5.851000 93.106000 499.886000
-5.283000 93.211000 500.452000
-4.713000 93.296000 500.906000
-4.143000 93.411000 501.524000
-3.571000 93.504000 502.026000
-2.998000 93.609000 502.588000
-2.424000 93.764000 503.424000
-1.849000 93.905000 504.178000
-1.272000 94.072000 505.073000
-0.694000 94.249000 506.025000
-24.797000 93.693000 499.958000
-24.213000 93.653000 499.743000
-23.615000 93.560000 499.250000
-23.032000 93.518000 499.022000
-22.440000 93.440000 498.607000
-21.858000 93.401000 498.398000
-21.280000 93.376000 498.269000
-20.697000 93.327000 498.007000
-20.115000 93.279000 497.748000
-19.540000 93.263000 497.664000
-18.963000 93.236000 497.519000
-18.390000 93.227000 497.470000
-17.813000 93.198000 497.315000
-17.236000 93.165000 497.140000
-16.668000 93.179000 497.213000
-16.090000 93.140000 497.006000
-15.526000 93.180000 497.219000
-14.948000 93.134000 496.977000
-14.384000 93.181000 497.225000
-13.809000 93.152000 497.069000
-13.246000 93.208000 497.372000
-12.672000 93.183000 497.234000
-12.109000 93.248000 497.583000
-11.535000 93.225000 497.460000
-10.972000 93.294000 497.827000
-10.400000 93.292000 497.817000
-9.837000 93.370000 498.235000
-9.266000 93.382000 498.299000
-8.700000 93.453000 498.676000
-8.131000 93.490000 498.874000
-7.564000 93.563000 499.265000
-6.994000 93.602000 499.473000
-6.427000 93.706000 500.029000
-5.857000 93.770000 500.370000
-5.288000 93.864000 500.868000
-4.717000 93.945000 501.305000
-4.146000 94.054000 501.886000
-3.574000 94.165000 502.475000
-3.000000 94.277000 503.073000
-2.427000 94.459000 504.045000
-1.852000 94.609000 504.846000
-1.275000 94.814000 505.941000
-24.826000 94.377000 500.541000
-24.233000 94.306000 500.162000
-23.633000 94.203000 499.616000
-23.054000 94.183000 499.513000
-22.460000 94.097000 499.058000
-21.876000 94.051000 498.813000
-21.294000 94.009000 498.586000
-20.708000 93.949000 498.270000
-20.130000 93.919000 498.113000
-19.552000 93.893000 497.971000
-18.977000 93.873000 497.870000
-18.401000 93.851000 497.751000
-17.824000 93.823000 497.600000
-17.247000 93.793000 497.445000
-16.678000 93.805000 497.509000
-16.102000 93.778000 497.364000
-15.536000 93.809000 497.526000
-14.961000 93.789000 497.420000
-14.394000 93.813000 497.549000
-13.818000 93.782000 497.387000
-13.254000 93.832000 497.652000
-12.680000 93.812000 497.545000
-12.116000 93.871000 497.855000
-11.543000 93.863000 497.815000
-10.981000 93.946000 498.253000
-10.407000 93.926000 498.149000
-9.844000 94.011000 498.597000
-9.272000 94.017000 498.629000
-8.706000 94.087000 499.005000
-8.136000 94.121000 499.183000
-7.570000 94.212000 499.663000
-6.999000 94.246000 499.846000
-6.431000 94.332000 500.304000
-5.860000 94.400000 500.663000
-5.292000 94.506000 501.223000
-4.721000 94.615000 501.803000
-4.150000 94.719000 502.356000
-3.577000 94.826000 502.923000
-3.004000 94.975000 503.711000
-2.430000 95.142000 504.596000
-1.854000 95.326000 505.576000
-22.475000 94.732000 499.383000
-21.893000 94.695000 499.185000
-21.309000 94.647000 498.933000
-20.724000 94.594000 498.656000
-20.143000 94.555000 498.451000
-19.566000 94.533000 498.332000
-18.987000 94.498000 498.148000
-18.411000 94.476000 498.031000
-17.834000 94.448000 497.885000
-17.260000 94.437000 497.826000
-16.687000 94.431000 497.794000
-16.114000 94.421000 497.743000
-15.545000 94.439000 497.837000
-14.972000 94.425000 497.763000
-14.404000 94.451000 497.899000
-13.827000 94.418000 497.724000
-13.264000 94.475000 498.026000
-12.690000 94.458000 497.938000
-12.126000 94.516000 498.246000
-11.551000 94.498000 498.147000
-10.989000 94.584000 498.600000
-10.413000 94.550000 498.423000
-9.851000 94.652000 498.960000
-9.280000 94.670000 499.053000
-8.713000 94.731000 499.376000
-8.142000 94.765000 499.559000
-7.576000 94.856000 500.034000
-7.004000 94.895000 500.242000
-6.438000 95.016000 500.879000
-5.868000 95.101000 501.327000
-5.297000 95.178000 501.736000
-4.726000 95.291000 502.330000
-4.155000 95.408000 502.947000
-3.582000 95.531000 503.596000
-3.009000 95.695000 504.456000
-2.434000 95.870000 505.380000
-22.491000 95.373000 499.737000
-21.919000 95.384000 499.792000
-21.325000 95.291000 499.306000
-20.742000 95.248000 499.079000
-20.157000 95.194000 498.798000
-19.578000 95.159000 498.617000
-19.001000 95.137000 498.498000
-18.424000 95.113000 498.373000
-17.849000 95.101000 498.312000
-17.274000 95.083000 498.218000
-16.700000 95.074000 498.168000
-16.127000 95.070000 498.147000
-15.553000 95.060000 498.094000
-14.982000 95.060000 498.094000
-14.412000 95.074000 498.171000
-13.838000 95.061000 498.103000
-13.274000 95.118000 498.402000
-12.699000 95.096000 498.287000
-12.135000 95.159000 498.617000
-11.561000 95.152000 498.580000
-10.995000 95.207000 498.868000
-10.422000 95.207000 498.865000
-9.857000 95.282000 499.261000
-9.286000 95.309000 499.403000
-8.721000 95.397000 499.863000
-8.151000 95.444000 500.106000
-7.582000 95.514000 500.477000
-7.012000 95.575000 500.795000
-6.443000 95.664000 501.263000
-5.872000 95.741000 501.664000
-5.302000 95.845000 502.208000
-4.731000 95.968000 502.853000
-4.159000 96.091000 503.498000
-3.587000 96.241000 504.283000
-3.013000 96.417000 505.207000
-2.438000 96.619000 506.266000
-22.512000 96.039000 500.218000
-21.935000 96.025000 500.143000
-21.342000 95.942000 499.710000
-20.762000 95.912000 499.556000
-20.176000 95.856000 499.264000
-19.595000 95.817000 499.060000
-19.018000 95.796000 498.952000
-18.440000 95.769000 498.812000
-17.863000 95.747000 498.695000
-17.287000 95.730000 498.604000
-16.711000 95.710000 498.502000
-16.139000 95.715000 498.528000
-15.564000 95.696000 498.431000
-14.993000 95.703000 498.465000
