62.649000 -24.149000 459.235000
63.122000 -24.128000 458.838000
63.582000 -24.103000 458.358000
64.064000 -24.086000 458.038000
64.526000 -24.063000 457.585000
65.009000 -24.047000 457.286000
65.477000 -24.026000 456.891000
65.971000 -24.015000 456.675000
66.440000 -23.995000 456.293000
66.938000 -23.986000 456.121000
67.413000 -23.968000 455.787000
67.911000 -23.959000 455.618000
68.396000 -23.946000 455.367000
68.902000 -23.940000 455.255000
69.396000 -23.930000 455.064000
69.875000 -23.915000 454.780000
70.389000 -23.912000 454.726000
70.888000 -23.905000 454.583000
71.396000 -23.900000 454.489000
71.897000 -23.893000 454.359000
72.403000 -23.888000 454.262000
72.923000 -23.887000 454.248000
73.437000 -23.885000 454.207000
73.952000 -23.883000 454.163000
74.471000 -23.882000 454.146000
74.986000 -23.880000 454.108000
75.516000 -23.883000 454.163000
76.034000 -23.881000 454.142000
76.567000 -23.885000 454.206000
77.088000 -23.885000 454.205000
77.634000 -23.892000 454.351000
78.173000 -23.898000 454.448000
78.714000 -23.903000 454.557000
79.264000 -23.912000 454.719000
79.823000 -23.923000 454.929000
80.369000 -23.930000 455.066000
80.944000 -23.945000 455.357000
81.480000 -23.949000 455.432000
82.083000 -23.973000 455.878000
82.621000 -23.977000 455.959000
83.235000 -24.003000 456.451000
83.798000 -24.014000 456.666000
84.422000 -24.042000 457.203000
85.002000 -24.058000 457.503000
85.646000 -24.092000 458.136000
86.248000 -24.113000 458.537000
86.928000 -24.155000 459.352000
87.567000 -24.186000 459.934000
62.609000 -23.607000 458.942000
63.077000 -23.585000 458.511000
63.547000 -23.564000 458.102000
64.024000 -23.546000 457.754000
64.485000 -23.522000 457.295000
64.977000 -23.510000 457.061000
65.444000 -23.490000 456.660000
65.932000 -23.477000 456.410000
66.397000 -23.456000 456.000000
66.897000 -23.447000 455.839000
67.377000 -23.432000 455.544000
67.874000 -23.423000 455.373000
68.363000 -23.411000 455.143000
68.850000 -23.400000 454.912000
69.362000 -23.396000 454.846000
69.845000 -23.383000 454.585000
70.347000 -23.376000 454.459000
70.851000 -23.370000 454.342000
71.353000 -23.364000 454.220000
71.864000 -23.360000 454.148000
72.363000 -23.353000 454.010000
72.877000 -23.351000 453.966000
73.395000 -23.350000 453.947000
73.914000 -23.349000 453.931000
74.433000 -23.348000 453.918000
74.945000 -23.346000 453.860000
75.469000 -23.347000 453.880000
75.993000 -23.347000 453.893000
76.528000 -23.352000 453.978000
77.046000 -23.350000 453.956000
77.592000 -23.358000 454.104000
78.121000 -23.360000 454.147000
78.673000 -23.369000 454.323000
79.207000 -23.373000 454.394000
79.772000 -23.386000 454.639000
80.325000 -23.395000 454.815000
80.893000 -23.408000 455.070000
81.433000 -23.413000 455.169000
82.020000 -23.431000 455.525000
82.572000 -23.439000 455.685000
83.178000 -23.463000 456.143000
83.727000 -23.470000 456.280000
84.355000 -23.499000 456.843000
84.932000 -23.513000 457.125000
85.580000 -23.547000 457.783000
86.169000 -23.565000 458.119000
86.837000 -23.603000 458.870000
87.475000 -23.633000 459.453000
62.569000 -23.065000 458.649000
63.041000 -23.045000 458.246000
63.500000 -23.021000 457.766000
63.983000 -23.005000 457.460000
64.444000 -22.982000 457.004000
64.937000 -22.971000 456.779000
65.409000 -22.953000 456.416000
65.894000 -22.939000 456.146000
66.364000 -22.921000 455.778000
66.858000 -22.911000 455.576000
67.339000 -22.896000 455.292000
67.837000 -22.888000 455.125000
68.327000 -22.877000 454.908000
68.810000 -22.864000 454.648000
69.311000 -22.857000 454.509000
69.810000 -22.849000 454.358000
70.308000 -22.842000 454.203000
70.817000 -22.838000 454.127000
71.314000 -22.830000 453.971000
71.820000 -22.825000 453.870000
72.317000 -22.817000 453.722000
72.837000 -22.817000 453.716000
73.351000 -22.815000 453.673000
73.874000 -22.816000 453.687000
74.393000 -22.815000 453.671000
74.902000 -22.811000 453.598000
75.421000 -22.811000 453.592000
75.940000 -22.810000 453.579000
76.495000 -22.821000 453.784000
77.010000 -22.819000 453.747000
77.552000 -22.825000 453.870000
78.069000 -22.824000 453.846000
78.628000 -22.835000 454.064000
79.154000 -22.836000 454.092000
79.733000 -22.852000 454.417000
80.263000 -22.855000 454.465000
80.835000 -22.869000 454.748000
81.389000 -22.878000 454.922000
81.962000 -22.892000 455.205000
82.509000 -22.899000 455.339000
83.128000 -22.925000 455.865000
83.678000 -22.932000 456.010000
84.293000 -22.957000 456.504000
84.867000 -22.971000 456.774000
85.512000 -23.003000 457.417000
86.109000 -23.023000 457.801000
86.756000 -23.055000 458.443000
87.380000 -23.081000 458.955000
88.085000 -23.127000 459.885000
62.533000 -22.525000 458.382000
63.009000 -22.508000 458.020000
63.464000 -22.482000 457.508000
63.946000 -22.467000 457.193000
64.409000 -22.445000 456.754000
64.893000 -22.431000 456.470000
65.372000 -22.416000 456.158000
65.862000 -22.405000 455.924000
66.328000 -22.385000 455.529000
66.824000 -22.376000 455.345000
67.308000 -22.363000 455.082000
67.792000 -22.350000 454.822000
68.288000 -22.342000 454.646000
68.779000 -22.332000 454.441000
69.275000 -22.323000 454.270000
69.780000 -22.318000 454.165000
70.269000 -22.308000 453.954000
70.788000 -22.307000 453.942000
71.285000 -22.299000 453.783000
71.797000 -22.297000 453.730000
72.289000 -22.288000 453.548000
72.806000 -22.287000 453.523000
73.317000 -22.284000 453.460000
73.829000 -22.281000 453.410000
74.356000 -22.283000 453.445000
74.869000 -22.281000 453.403000
75.391000 -22.281000 453.408000
75.909000 -22.280000 453.393000
76.460000 -22.289000 453.573000
76.966000 -22.285000 453.484000
77.519000 -22.294000 453.674000
78.027000 -22.291000 453.603000
78.598000 -22.305000 453.891000
79.116000 -22.304000 453.872000
79.697000 -22.321000 454.214000
80.220000 -22.321000 454.222000
80.798000 -22.337000 454.538000
81.348000 -22.344000 454.693000
81.916000 -22.357000 454.952000
82.461000 -22.363000 455.076000
83.070000 -22.386000 455.549000
83.630000 -22.396000 455.750000
84.248000 -22.421000 456.262000
84.815000 -22.433000 456.493000
85.446000 -22.461000 457.065000
86.041000 -22.479000 457.439000
86.708000 -22.516000 458.188000
87.323000 -22.539000 458.657000
88.003000 -22.578000 459.454000
88.657000 -22.610000 460.109000
62.022000 -22.004000 458.494000
62.485000 -21.982000 458.033000
62.974000 -21.969000 457.765000
63.427000 -21.944000 457.236000
63.907000 -21.929000 456.914000
64.378000 -21.910000 456.533000
64.862000 -21.897000 456.253000
65.342000 -21.882000 455.950000
65.832000 -21.871000 455.715000
66.300000 -21.853000 455.336000
66.800000 -21.845000 455.181000
67.281000 -21.832000 454.900000
67.765000 -21.819000 454.641000
68.255000 -21.809000 454.425000
68.756000 -21.803000 454.291000
69.248000 -21.793000 454.092000
69.752000 -21.788000 453.985000
70.242000 -21.778000 453.781000
70.758000 -21.777000 453.749000
71.245000 -21.766000 453.532000
71.758000 -21.764000 453.482000
72.260000 -21.758000 453.365000
72.777000 -21.757000 453.344000
73.286000 -21.754000 453.268000
73.796000 -21.751000 453.203000
74.318000 -21.751000 453.216000
74.837000 -21.751000 453.204000
75.361000 -21.752000 453.231000
75.875000 -21.750000 453.192000
76.417000 -21.756000 453.319000
76.925000 -21.753000 453.245000
77.475000 -21.761000 453.415000
77.990000 -21.759000 453.385000
78.575000 -21.777000 453.757000
79.074000 -21.771000 453.629000
79.658000 -21.788000 453.989000
80.174000 -21.787000 453.961000
80.756000 -21.803000 454.301000
81.295000 -21.808000 454.396000
81.875000 -21.823000 454.721000
82.427000 -21.831000 454.886000
83.021000 -21.850000 455.279000
83.583000 -21.860000 455.491000
84.189000 -21.882000 455.942000
84.760000 -21.894000 456.199000
85.388000 -21.921000 456.754000
85.978000 -21.938000 457.106000
86.629000 -21.970000 457.771000
87.250000 -21.994000 458.272000
87.913000 -22.028000 458.987000
88.574000 -22.061000 459.678000
60.599000 -21.534000 459.685000
61.072000 -21.514000 459.272000
61.528000 -21.489000 458.738000
61.996000 -21.469000 458.300000
62.452000 -21.445000 457.788000
62.946000 -21.434000 457.562000
63.399000 -21.410000 457.035000
63.883000 -21.396000 456.747000
64.351000 -21.377000 456.348000
64.835000 -21.364000 456.065000
65.310000 -21.348000 455.720000
65.804000 -21.339000 455.522000
66.271000 -21.321000 455.139000
66.761000 -21.310000 454.913000
67.257000 -21.302000 454.732000
67.746000 -21.291000 454.511000
68.235000 -21.281000 454.293000
68.736000 -21.275000 454.158000
69.220000 -21.263000 453.911000
69.730000 -21.260000 453.837000
70.213000 -21.248000 453.595000
70.736000 -21.249000 453.609000
71.218000 -21.237000 453.360000
71.725000 -21.233000 453.270000
72.229000 -21.229000 453.172000
72.749000 -21.228000 453.166000
73.262000 -21.226000 453.121000
73.773000 -21.224000 453.066000
74.289000 -21.222000 453.040000
74.796000 -21.219000 452.962000
75.333000 -21.223000 453.061000
75.850000 -21.223000 453.042000
76.388000 -21.227000 453.146000
76.899000 -21.225000 453.090000
77.452000 -21.234000 453.281000
77.967000 -21.232000 453.251000
78.538000 -21.246000 453.540000
79.037000 -21.240000 453.421000
79.622000 -21.257000 453.783000
80.138000 -21.256000 453.756000
80.721000 -21.272000 454.104000
81.252000 -21.275000 454.156000
81.841000 -21.292000 454.532000
82.386000 -21.298000 454.659000
82.987000 -21.319000 455.093000
83.541000 -21.327000 455.264000
84.144000 -21.347000 455.701000
84.714000 -21.359000 455.953000
85.351000 -21.387000 456.560000
85.937000 -21.403000 456.884000
86.579000 -21.432000 457.507000
87.193000 -21.454000 457.972000
87.842000 -21.484000 458.617000
88.492000 -21.514000 459.255000
60.575000 -20.997000 459.501000
61.042000 -20.977000 459.046000
61.500000 -20.953000 458.533000
61.969000 -20.934000 458.105000
62.425000 -20.910000 457.592000
62.921000 -20.900000 457.378000
63.375000 -20.877000 456.866000
63.857000 -20.863000 456.562000
64.322000 -20.844000 456.138000
64.812000 -20.833000 455.902000
65.282000 -20.816000 455.527000
65.769000 -20.805000 455.280000
66.245000 -20.790000 454.955000
66.731000 -20.779000 454.712000
67.219000 -20.768000 454.481000
67.718000 -20.761000 454.325000
68.206000 -20.751000 454.100000
68.711000 -20.746000 453.992000
69.194000 -20.734000 453.739000
69.710000 -20.733000 453.707000
70.185000 -20.719000 453.410000
70.697000 -20.717000 453.355000
71.196000 -20.710000 453.218000
71.699000 -20.705000 453.111000
72.204000 -20.701000 453.011000
72.710000 -20.697000 452.922000
73.236000 -20.699000 452.962000
73.746000 -20.696000 452.898000
74.265000 -20.695000 452.891000
74.776000 -20.693000 452.836000
75.304000 -20.695000 452.888000
75.818000 -20.693000 452.847000
76.362000 -20.700000 452.989000
76.874000 -20.698000 452.947000
77.422000 -20.705000 453.106000
77.937000 -20.704000 453.078000
78.500000 -20.715000 453.323000
79.009000 -20.712000 453.259000
79.588000 -20.727000 453.589000
80.098000 -20.725000 453.529000
80.690000 -20.743000 453.931000
81.218000 -20.745000 453.970000
81.803000 -20.761000 454.321000
82.346000 -20.766000 454.442000
82.944000 -20.785000 454.859000
83.508000 -20.796000 455.084000
84.105000 -20.814000 455.486000
84.678000 -20.826000 455.755000
85.297000 -20.850000 456.267000
85.885000 -20.865000 456.611000
86.522000 -20.893000 457.204000
87.129000 -20.912000 457.636000
87.794000 -20.945000 458.362000
88.445000 -20.975000 459.011000
89.151000 -21.017000 459.936000
61.020000 -20.442000 458.878000
61.484000 -20.421000 458.409000
61.954000 -20.403000 457.992000
62.403000 -20.378000 457.429000
62.889000 -20.365000 457.142000
63.351000 -20.345000 456.692000
63.836000 -20.332000 456.409000
64.304000 -20.314000 456.012000
64.785000 -20.301000 455.713000
65.259000 -20.286000 455.365000
65.744000 -20.274000 455.107000
66.223000 -20.261000 454.808000
66.710000 -20.250000 454.569000
67.195000 -20.239000 454.318000
67.697000 -20.233000 454.183000
68.184000 -20.223000 453.954000
68.691000 -20.218000 453.858000
69.164000 -20.205000 453.545000
69.679000 -20.203000 453.508000
70.162000 -20.192000 453.264000
70.673000 -20.189000 453.202000
71.171000 -20.183000 453.058000
71.680000 -20.180000 452.989000
72.187000 -20.176000 452.908000
72.688000 -20.171000 452.790000
73.208000 -20.171000 452.786000
73.721000 -20.169000 452.745000
74.245000 -20.170000 452.770000
74.752000 -20.166000 452.690000
75.276000 -20.168000 452.716000
75.793000 -20.167000 452.700000
76.327000 -20.171000 452.784000
76.849000 -20.171000 452.795000
77.394000 -20.178000 452.945000
77.909000 -20.176000 452.911000
78.465000 -20.186000 453.123000
78.989000 -20.187000 453.142000
79.564000 -20.201000 453.456000
80.073000 -20.197000 453.386000
80.658000 -20.214000 453.748000
81.182000 -20.214000 453.765000
81.764000 -20.230000 454.105000
82.305000 -20.234000 454.213000
82.911000 -20.255000 454.678000
83.476000 -20.265000 454.913000
84.075000 -20.284000 455.327000
84.646000 -20.295000 455.585000
85.257000 -20.316000 456.056000
85.848000 -20.332000 456.411000
86.481000 -20.358000 456.988000
87.081000 -20.376000 457.386000
87.749000 -20.409000 458.129000
88.406000 -20.439000 458.811000
89.086000 -20.474000 459.598000
60.993000 -19.907000 458.678000
61.454000 -19.885000 458.189000
61.938000 -19.872000 457.873000
62.382000 -19.846000 457.279000
62.860000 -19.831000 456.933000
63.328000 -19.813000 456.527000
63.814000 -19.801000 456.255000
64.286000 -19.785000 455.882000
64.767000 -19.772000 455.588000
65.238000 -19.757000 455.222000
65.727000 -19.746000 454.986000
66.201000 -19.732000 454.657000
66.691000 -19.722000 454.435000
67.177000 -19.712000 454.193000
67.675000 -19.705000 454.035000
68.164000 -19.696000 453.823000
68.670000 -19.692000 453.724000
69.141000 -19.677000 453.392000
69.650000 -19.674000 453.317000
70.146000 -19.667000 453.162000
70.652000 -19.663000 453.067000
71.150000 -19.657000 452.927000
71.649000 -19.651000 452.794000
72.170000 -19.651000 452.800000
72.666000 -19.645000 452.647000
73.188000 -19.645000 452.662000
73.695000 -19.642000 452.587000
74.221000 -19.644000 452.626000
74.731000 -19.641000 452.565000
75.252000 -19.642000 452.572000
75.769000 -19.641000 452.560000
76.303000 -19.645000 452.641000
76.821000 -19.644000 452.634000
77.359000 -19.649000 452.737000
77.889000 -19.651000 452.797000
78.446000 -19.661000 453.013000
78.968000 -19.661000 453.020000
79.542000 -19.674000 453.330000
80.058000 -19.673000 453.302000
80.635000 -19.687000 453.623000
81.154000 -19.687000 453.612000
81.745000 -19.703000 453.999000
82.274000 -19.705000 454.042000
82.877000 -19.725000 454.489000
83.439000 -19.734000 454.710000
84.039000 -19.753000 455.132000
84.604000 -19.762000 455.356000
85.213000 -19.782000 455.818000
85.808000 -19.799000 456.197000
86.434000 -19.822000 456.740000
87.039000 -19.841000 457.163000
87.693000 -19.870000 457.835000
88.343000 -19.898000 458.484000
88.997000 -19.926000 459.138000
89.689000 -19.963000 459.987000
60.977000 -19.375000 458.558000
61.444000 -19.356000 458.112000
61.923000 -19.341000 457.766000
62.367000 -19.316000 457.163000
62.849000 -19.303000 456.854000
63.316000 -19.285000 456.438000
63.792000 -19.271000 456.095000
64.266000 -19.256000 455.742000
64.754000 -19.245000 455.492000
65.223000 -19.229000 455.117000
65.718000 -19.221000 454.923000
66.193000 -19.208000 454.602000
66.677000 -19.196000 454.338000
67.162000 -19.186000 454.093000
67.659000 -19.179000 453.931000
68.139000 -19.168000 453.654000
68.654000 -19.166000 453.615000
69.135000 -19.155000 453.353000
69.645000 -19.152000 453.283000
70.133000 -19.143000 453.076000
70.638000 -19.139000 452.975000
71.136000 -19.133000 452.838000
71.625000 -19.125000 452.643000
72.147000 -19.125000 452.657000
72.652000 -19.121000 452.561000
73.171000 -19.121000 452.558000
73.673000 -19.117000 452.451000
74.199000 -19.118000 452.487000
74.703000 -19.114000 452.397000
75.234000 -19.117000 452.463000
75.751000 -19.117000 452.447000
76.284000 -19.120000 452.532000
76.806000 -19.121000 452.545000
77.335000 -19.123000 452.597000
77.864000 -19.125000 452.653000
78.424000 -19.135000 452.885000
78.951000 -19.137000 452.924000
79.518000 -19.148000 453.195000
80.041000 -19.149000 453.206000
80.619000 -19.162000 453.532000
81.135000 -19.161000 453.502000
81.728000 -19.178000 453.903000
82.254000 -19.179000 453.934000
82.852000 -19.197000 454.354000
83.408000 -19.205000 454.542000
84.010000 -19.223000 454.972000
84.576000 -19.233000 455.205000
85.182000 -19.252000 455.655000
85.769000 -19.266000 455.990000
86.405000 -19.291000 456.586000
87.009000 -19.309000 457.005000
87.659000 -19.337000 457.658000
88.289000 -19.360000 458.201000
88.955000 -19.390000 458.922000
89.650000 -19.427000 459.787000
60.048000 -18.887000 459.506000
60.494000 -18.862000 458.889000
60.961000 -18.843000 458.433000
61.422000 -18.823000 457.945000
61.900000 -18.808000 457.591000
62.346000 -18.785000 457.015000
62.829000 -18.772000 456.710000
63.304000 -18.758000 456.352000
63.781000 -18.744000 456.012000
64.248000 -18.727000 455.617000
64.736000 -18.717000 455.365000
65.203000 -18.701000 454.978000
65.703000 -18.695000 454.822000
66.180000 -18.682000 454.511000
66.663000 -18.671000 454.247000
67.146000 -18.660000 453.986000
67.646000 -18.654000 453.839000
68.125000 -18.643000 453.562000
68.633000 -18.639000 453.480000
69.122000 -18.631000 453.270000
69.627000 -18.627000 453.167000
70.117000 -18.619000 452.970000
70.618000 -18.614000 452.851000
71.123000 -18.610000 452.753000
71.610000 -18.601000 452.544000
72.138000 -18.603000 452.598000
72.633000 -18.597000 452.442000
73.155000 -18.598000 452.459000
73.654000 -18.592000 452.335000
74.182000 -18.595000 452.386000
74.687000 -18.591000 452.297000
75.211000 -18.592000 452.327000
75.734000 -18.593000 452.345000
76.267000 -18.596000 452.431000
76.791000 -18.597000 452.455000
77.320000 -18.600000 452.512000
77.852000 -18.603000 452.583000
78.405000 -18.610000 452.773000
78.927000 -18.611000 452.784000
79.484000 -18.620000 453.001000
80.021000 -18.624000 453.095000
80.597000 -18.636000 453.405000
81.117000 -18.636000 453.402000
81.709000 -18.653000 453.799000
82.237000 -18.654000 453.840000
82.835000 -18.672000 454.260000
83.387000 -18.678000 454.425000
83.985000 -18.695000 454.839000
84.550000 -18.705000 455.069000
85.154000 -18.723000 455.502000
85.741000 -18.737000 455.845000
86.379000 -18.761000 456.447000
86.980000 -18.778000 456.854000
87.632000 -18.806000 457.520000
88.242000 -18.824000 457.959000
88.906000 -18.853000 458.670000
89.608000 -18.890000 459.569000
60.041000 -18.357000 459.454000
60.493000 -18.335000 458.879000
60.943000 -18.311000 458.300000
61.396000 -18.290000 457.756000
61.875000 -18.276000 457.409000
62.331000 -18.256000 456.905000
62.814000 -18.243000 456.597000
63.286000 -18.228000 456.220000
63.761000 -18.214000 455.873000
64.232000 -18.199000 455.499000
64.723000 -18.191000 455.276000
65.194000 -18.176000 454.916000
65.683000 -18.167000 454.684000
66.165000 -18.156000 454.409000
66.654000 -18.147000 454.186000
67.134000 -18.136000 453.905000
67.638000 -18.131000 453.788000
68.116000 -18.120000 453.503000
68.617000 -18.114000 453.371000
69.105000 -18.106000 453.157000
69.609000 -18.102000 453.053000
70.109000 -18.096000 452.917000
70.605000 -18.090000 452.769000
71.117000 -18.088000 452.713000
71.605000 -18.080000 452.513000
72.125000 -18.080000 452.516000
72.615000 -18.073000 452.335000
73.139000 -18.074000 452.361000
73.643000 -18.070000 452.263000
74.169000 -18.072000 452.307000
74.679000 -18.070000 452.250000
75.200000 -18.070000 452.260000
75.709000 -18.068000 452.200000
76.246000 -18.072000 452.301000
76.773000 -18.074000 452.347000
77.303000 -18.076000 452.412000
77.841000 -18.080000 452.521000
78.387000 -18.086000 452.670000
78.911000 -18.088000 452.697000
79.465000 -18.095000 452.891000
80.001000 -18.099000 452.980000
80.572000 -18.110000 453.268000
81.096000 -18.111000 453.287000
81.689000 -18.127000 453.690000
82.219000 -18.129000 453.741000
82.821000 -18.147000 454.181000
83.373000 -18.153000 454.348000
83.967000 -18.169000 454.743000
84.527000 -18.177000 454.945000
85.132000 -18.195000 455.388000
85.724000 -18.210000 455.756000
86.348000 -18.231000 456.287000
86.957000 -18.249000 456.732000
87.609000 -18.275000 457.397000
88.221000 -18.293000 457.849000
88.871000 -18.319000 458.489000
89.564000 -18.353000 459.343000
59.551000 -17.841000 459.743000
60.024000 -17.825000 459.321000
60.474000 -17.802000 458.737000
60.928000 -17.781000 458.185000
61.377000 -17.758000 457.612000
61.870000 -17.749000 457.374000
62.323000 -17.729000 456.841000
62.804000 -17.716000 456.525000
63.268000 -17.700000 456.095000
63.749000 -17.688000 455.790000
64.223000 -17.674000 455.439000
64.713000 -17.665000 455.204000
65.184000 -17.651000 454.847000
65.673000 -17.642000 454.613000
66.150000 -17.630000 454.307000
66.645000 -17.623000 454.124000
67.124000 -17.612000 453.833000
67.619000 -17.605000 453.661000
68.101000 -17.595000 453.401000
68.603000 -17.590000 453.278000
69.087000 -17.581000 453.038000
69.595000 -17.578000 452.958000
70.097000 -17.573000 452.846000
70.593000 -17.567000 452.689000
71.106000 -17.566000 452.647000
71.594000 -17.558000 452.446000
72.119000 -17.559000 452.482000
72.612000 -17.553000 452.314000
73.133000 -17.553000 452.323000
73.627000 -17.547000 452.167000
74.155000 -17.549000 452.219000
74.667000 -17.548000 452.178000
75.189000 -17.548000 452.193000
75.695000 -17.545000 452.113000
76.230000 -17.549000 452.211000
76.752000 -17.549000 452.225000
77.298000 -17.555000 452.383000
77.828000 -17.558000 452.444000
78.382000 -17.566000 452.644000
78.906000 -17.566000 452.664000
79.459000 -17.574000 452.857000
79.991000 -17.577000 452.926000
80.560000 -17.587000 453.199000
81.079000 -17.587000 453.192000
81.668000 -17.602000 453.573000
82.191000 -17.602000 453.586000
82.797000 -17.620000 454.050000
83.350000 -17.627000 454.225000
83.944000 -17.642000 454.613000
84.511000 -17.652000 454.858000
85.116000 -17.669000 455.300000
85.705000 -17.682000 455.652000
86.319000 -17.701000 456.132000
86.930000 -17.719000 456.589000
87.568000 -17.742000 457.186000
88.198000 -17.763000 457.732000
88.840000 -17.786000 458.329000
89.517000 -17.816000 459.104000
90.230000 -17.853000 460.048000
59.542000 -17.311000 459.674000
60.013000 -17.294000 459.234000
60.467000 -17.273000 458.683000
60.921000 -17.253000 458.133000
61.378000 -17.233000 457.622000
61.867000 -17.223000 457.353000
62.316000 -17.202000 456.795000
62.792000 -17.189000 456.441000
63.261000 -17.174000 456.043000
63.736000 -17.161000 455.697000
64.209000 -17.147000 455.337000
64.699000 -17.139000 455.107000
65.171000 -17.125000 454.756000
65.661000 -17.117000 454.532000
66.141000 -17.106000 454.240000
66.637000 -17.100000 454.072000
67.120000 -17.090000 453.809000
67.618000 -17.084000 453.654000
68.096000 -17.073000 453.367000
68.600000 -17.069000 453.256000
69.082000 -17.059000 453.004000
69.579000 -17.054000 452.854000
70.091000 -17.052000 452.806000
70.586000 -17.046000 452.641000
71.100000 -17.044000 452.605000
71.584000 -17.036000 452.379000
72.117000 -17.039000 452.467000
72.607000 -17.032000 452.282000
73.130000 -17.033000 452.303000
73.623000 -17.027000 452.143000
74.140000 -17.027000 452.130000
74.653000 -17.025000 452.092000
75.176000 -17.026000 452.116000
75.683000 -17.023000 452.045000
76.215000 -17.026000 452.121000
76.740000 -17.027000 452.153000
77.282000 -17.033000 452.290000
77.817000 -17.036000 452.380000
78.375000 -17.044000 452.604000
78.906000 -17.047000 452.666000
79.449000 -17.052000 452.799000
79.985000 -17.055000 452.888000
80.551000 -17.065000 453.150000
81.065000 -17.064000 453.115000
81.654000 -17.078000 453.494000
82.179000 -17.079000 453.517000
82.788000 -17.097000 454.004000
83.336000 -17.103000 454.148000
83.928000 -17.117000 454.527000
84.492000 -17.125000 454.755000
85.096000 -17.142000 455.191000
85.679000 -17.154000 455.513000
86.294000 -17.172000 456.002000
86.899000 -17.188000 456.427000
87.549000 -17.213000 457.086000
88.176000 -17.233000 457.617000
88.830000 -17.258000 458.278000
89.505000 -17.287000 459.043000
90.203000 -17.320000 459.913000
59.535000 -16.781000 459.617000
60.003000 -16.764000 459.162000
60.455000 -16.743000 458.591000
60.919000 -16.726000 458.117000
61.374000 -16.707000 457.588000
61.862000 -16.697000 457.316000
62.314000 -16.677000 456.779000
62.783000 -16.662000 456.374000
63.255000 -16.649000 456.000000
63.731000 -16.636000 455.657000
64.203000 -16.623000 455.295000
64.695000 -16.615000 455.078000
65.163000 -16.601000 454.700000
65.658000 -16.594000 454.508000
66.138000 -16.584000 454.224000
66.632000 -16.577000 454.033000
67.120000 -16.569000 453.808000
67.614000 -16.562000 453.630000
68.093000 -16.552000 453.347000
68.597000 -16.548000 453.242000
69.080000 -16.539000 452.995000
69.576000 -16.533000 452.833000
70.083000 -16.530000 452.750000
70.583000 -16.525000 452.622000
71.095000 -16.524000 452.577000
71.580000 -16.516000 452.353000
72.106000 -16.517000 452.399000
72.607000 -16.513000 452.282000
73.129000 -16.514000 452.300000
73.616000 -16.506000 452.100000
74.129000 -16.505000 452.061000
74.631000 -16.501000 451.962000
75.162000 -16.504000 452.031000
75.670000 -16.501000 451.967000
76.202000 -16.504000 452.044000
76.723000 -16.505000 452.055000
77.274000 -16.511000 452.240000
77.811000 -16.515000 452.347000
78.376000 -16.525000 452.606000
78.900000 -16.526000 452.635000
79.453000 -16.533000 452.819000
79.982000 -16.534000 452.873000
80.550000 -16.544000 453.141000
81.062000 -16.543000 453.095000
81.648000 -16.556000 453.459000
82.175000 -16.557000 453.493000
82.781000 -16.574000 453.962000
83.319000 -16.578000 454.054000
83.914000 -16.592000 454.453000
84.484000 -16.602000 454.714000
85.091000 -16.618000 455.169000
85.671000 -16.629000 455.471000
86.290000 -16.648000 455.979000
86.898000 -16.664000 456.424000
87.544000 -16.687000 457.059000
88.161000 -16.705000 457.538000
88.827000 -16.731000 458.263000
89.503000 -16.759000 459.029000
90.196000 -16.790000 459.876000
59.532000 -16.252000 459.595000
60.001000 -16.236000 459.143000
60.458000 -16.217000 458.611000
60.920000 -16.200000 458.126000
61.365000 -16.179000 457.524000
61.857000 -16.170000 457.273000
62.309000 -16.151000 456.739000
62.775000 -16.136000 456.316000
63.249000 -16.123000 455.954000
63.727000 -16.112000 455.630000
64.197000 -16.099000 455.251000
64.692000 -16.092000 455.059000
65.165000 -16.079000 454.712000
65.655000 -16.072000 454.489000
66.137000 -16.062000 454.218000
66.626000 -16.054000 453.993000
67.106000 -16.044000 453.713000
67.605000 -16.039000 453.566000
68.088000 -16.030000 453.314000
68.590000 -16.026000 453.196000
69.081000 -16.019000 453.002000
69.579000 -16.014000 452.857000
70.083000 -16.010000 452.752000
70.570000 -16.003000 452.544000
71.092000 -16.003000 452.557000
71.583000 -15.997000 452.373000
72.110000 -15.998000 452.422000
72.607000 -15.994000 452.281000
73.134000 -15.995000 452.327000
73.615000 -15.987000 452.094000
74.116000 -15.983000 451.985000
74.617000 -15.979000 451.877000
75.142000 -15.980000 451.909000
75.652000 -15.979000 451.856000
76.187000 -15.982000 451.957000
76.713000 -15.984000 451.998000
77.266000 -15.990000 452.195000
77.824000 -15.998000 452.420000
78.378000 -16.005000 452.617000
78.908000 -16.007000 452.676000
79.449000 -16.012000 452.797000
79.975000 -16.013000 452.831000
80.554000 -16.025000 453.164000
81.066000 -16.023000 453.116000
81.643000 -16.034000 453.435000
82.172000 -16.036000 453.478000
82.775000 -16.052000 453.930000
83.314000 -16.055000 454.027000
83.912000 -16.070000 454.443000
84.483000 -16.079000 454.708000
85.089000 -16.095000 455.154000
85.665000 -16.105000 455.439000
86.281000 -16.123000 455.931000
86.895000 -16.139000 456.405000
87.538000 -16.161000 457.025000
88.162000 -16.180000 457.541000
88.827000 -16.205000 458.263000
89.492000 -16.230000 458.973000
90.185000 -16.260000 459.819000
59.518000 -15.721000 459.491000
59.992000 -15.707000 459.079000
60.450000 -15.689000 458.552000
60.913000 -15.672000 458.072000
61.361000 -15.652000 457.491000
61.853000 -15.644000 457.244000
62.308000 -15.626000 456.732000
62.777000 -15.613000 456.327000
63.249000 -15.600000 455.955000
63.726000 -15.589000 455.625000
64.195000 -15.575000 455.235000
64.690000 -15.569000 455.044000
65.164000 -15.557000 454.705000
65.652000 -15.549000 454.471000
66.133000 -15.539000 454.185000
66.623000 -15.532000 453.972000
67.103000 -15.522000 453.693000
67.605000 -15.518000 453.566000
68.089000 -15.510000 453.322000
68.587000 -15.505000 453.174000
69.073000 -15.497000 452.947000
69.576000 -15.493000 452.834000
70.079000 -15.489000 452.726000
70.570000 -15.483000 452.543000
71.092000 -15.484000 452.559000
71.591000 -15.479000 452.429000
72.121000 -15.481000 452.489000
72.614000 -15.476000 452.329000
73.139000 -15.477000 452.358000
73.616000 -15.468000 452.098000
74.113000 -15.463000 451.965000
74.601000 -15.457000 451.779000
75.130000 -15.459000 451.839000
75.636000 -15.456000 451.764000
76.169000 -15.459000 451.847000
76.694000 -15.460000 451.881000
77.260000 -15.470000 452.160000
77.837000 -15.482000 452.495000
78.396000 -15.489000 452.725000
78.911000 -15.488000 452.698000
79.454000 -15.493000 452.826000
79.972000 -15.493000 452.817000
80.542000 -15.502000 453.098000
81.061000 -15.502000 453.093000
81.634000 -15.512000 453.386000
82.167000 -15.514000 453.450000
82.775000 -15.531000 453.930000
83.318000 -15.535000 454.048000
83.915000 -15.549000 454.459000
84.480000 -15.557000 454.691000
85.082000 -15.571000 455.117000
85.667000 -15.583000 455.450000
86.280000 -15.599000 455.928000
86.892000 -15.615000 456.392000
87.530000 -15.635000 456.987000
88.156000 -15.653000 457.512000
88.823000 -15.678000 458.241000
89.481000 -15.701000 458.916000
90.166000 -15.729000 459.724000
59.515000 -15.192000 459.461000
59.980000 -15.176000 458.983000
60.453000 -15.163000 458.578000
60.913000 -15.146000 458.076000
61.359000 -15.127000 457.479000
61.845000 -15.117000 457.188000
62.302000 -15.101000 456.691000
62.776000 -15.088000 456.323000
63.247000 -15.076000 455.941000
63.727000 -15.065000 455.627000
64.197000 -15.053000 455.250000
64.690000 -15.046000 455.045000
65.168000 -15.036000 454.730000
65.653000 -15.027000 454.474000
66.131000 -15.017000 454.174000
66.623000 -15.011000 453.970000
67.101000 -15.001000 453.681000
67.602000 -14.997000 453.545000
68.089000 -14.989000 453.325000
68.586000 -14.984000 453.168000
69.073000 -14.977000 452.945000
69.569000 -14.972000 452.790000
70.081000 -14.970000 452.740000
70.572000 -14.964000 452.557000
71.096000 -14.965000 452.584000
71.588000 -14.959000 452.409000
72.132000 -14.964000 452.559000
72.630000 -14.960000 452.429000
73.151000 -14.960000 452.435000
73.618000 -14.949000 452.116000
74.102000 -14.942000 451.900000
74.592000 -14.936000 451.720000
75.107000 -14.936000 451.703000
75.629000 -14.936000 451.723000
76.165000 -14.940000 451.821000
76.680000 -14.939000 451.799000
77.251000 -14.949000 452.106000
77.842000 -14.963000 452.525000
78.409000 -14.972000 452.799000
78.918000 -14.970000 452.736000
79.459000 -14.974000 452.856000
79.974000 -14.973000 452.829000
80.542000 -14.982000 453.098000
81.062000 -14.982000 453.096000
81.641000 -14.993000 453.423000
82.168000 -14.994000 453.460000
82.766000 -15.008000 453.882000
83.310000 -15.012000 454.004000
83.906000 -15.025000 454.409000
84.469000 -15.033000 454.633000
85.067000 -15.046000 455.039000
85.659000 -15.058000 455.409000
86.272000 -15.074000 455.882000
86.885000 -15.090000 456.356000
87.515000 -15.108000 456.908000
88.139000 -15.125000 457.425000
88.805000 -15.149000 458.150000
89.485000 -15.175000 458.938000
90.167000 -15.201000 459.726000
90.890000 -15.234000 460.718000
59.530000 -14.669000 459.583000
59.987000 -14.651000 459.041000
60.455000 -14.637000 458.594000
60.914000 -14.621000 458.079000
61.363000 -14.602000 457.507000
61.854000 -14.594000 457.257000
62.304000 -14.577000 456.705000
62.778000 -14.565000 456.335000
63.251000 -14.553000 455.973000
63.730000 -14.543000 455.648000
64.204000 -14.532000 455.302000
64.698000 -14.525000 455.097000
65.172000 -14.515000 454.761000
65.660000 -14.507000 454.522000
66.137000 -14.497000 454.213000
66.624000 -14.490000 453.980000
67.106000 -14.481000 453.717000
67.604000 -14.476000 453.561000
68.087000 -14.468000 453.306000
68.591000 -14.465000 453.201000
69.078000 -14.458000 452.982000
69.576000 -14.453000 452.834000
70.086000 -14.451000 452.769000
70.573000 -14.444000 452.562000
71.098000 -14.446000 452.597000
71.593000 -14.441000 452.441000
72.133000 -14.445000 452.564000
72.638000 -14.442000 452.476000
73.159000 -14.442000 452.486000
73.622000 -14.431000 452.138000
74.107000 -14.424000 451.928000
74.583000 -14.416000 451.672000
75.109000 -14.417000 451.711000
75.631000 -14.418000 451.731000
76.174000 -14.423000 451.875000
76.696000 -14.423000 451.893000
77.260000 -14.432000 452.162000
77.830000 -14.441000 452.453000
78.398000 -14.450000 452.733000
78.921000 -14.450000 452.750000
79.458000 -14.454000 452.848000
79.976000 -14.453000 452.836000
80.546000 -14.462000 453.122000
81.064000 -14.462000 453.106000
81.651000 -14.474000 453.480000
82.175000 -14.474000 453.498000
82.771000 -14.487000 453.908000
83.314000 -14.491000 454.027000
83.906000 -14.504000 454.412000
84.474000 -14.511000 454.659000
85.076000 -14.525000 455.086000
85.662000 -14.536000 455.424000
86.273000 -14.551000 455.889000
86.889000 -14.566000 456.374000
87.522000 -14.584000 456.946000
88.151000 -14.602000 457.485000
88.806000 -14.623000 458.153000
89.492000 -14.649000 458.973000
90.178000 -14.675000 459.785000
90.896000 -14.706000 460.746000
59.540000 -14.143000 459.657000
60.012000 -14.130000 459.230000
60.463000 -14.112000 458.654000
60.920000 -14.096000 458.130000
61.368000 -14.078000 457.543000
61.860000 -14.070000 457.296000
62.314000 -14.054000 456.774000
62.784000 -14.042000 456.382000
63.259000 -14.031000 456.028000
63.736000 -14.021000 455.691000
64.211000 -14.011000 455.355000
64.703000 -14.004000 455.136000
65.173000 -13.993000 454.767000
65.662000 -13.986000 454.538000
66.140000 -13.976000 454.237000
66.631000 -13.970000 454.031000
67.117000 -13.963000 453.788000
67.611000 -13.957000 453.606000
68.093000 -13.949000 453.346000
68.597000 -13.946000 453.236000
69.089000 -13.940000 453.053000
69.588000 -13.936000 452.916000
70.091000 -13.932000 452.801000
70.583000 -13.927000 452.627000
71.105000 -13.927000 452.637000
71.599000 -13.922000 452.479000
72.133000 -13.925000 452.564000
72.628000 -13.920000 452.411000
73.161000 -13.923000 452.497000
73.630000 -13.913000 452.189000
74.119000 -13.907000 451.999000
74.597000 -13.900000 451.754000
75.120000 -13.901000 451.777000
75.647000 -13.902000 451.826000
76.193000 -13.907000 451.990000
76.715000 -13.908000 452.007000
77.274000 -13.915000 452.244000
77.821000 -13.920000 452.404000
78.390000 -13.929000 452.687000
78.907000 -13.928000 452.672000
79.452000 -13.933000 452.817000
79.982000 -13.934000 452.874000
80.548000 -13.942000 453.130000
81.070000 -13.943000 453.139000
81.662000 -13.955000 453.537000
82.188000 -13.956000 453.568000
82.779000 -13.968000 453.951000
83.318000 -13.971000 454.051000
83.916000 -13.983000 454.465000
84.483000 -13.991000 454.706000
85.087000 -14.004000 455.144000
85.677000 -14.015000 455.502000
86.286000 -14.029000 455.960000
86.898000 -14.044000 456.423000
87.531000 -14.061000 456.990000
88.161000 -14.078000 457.537000
88.815000 -14.098000 458.201000
89.497000 -14.123000 458.999000
90.194000 -14.150000 459.867000
90.920000 -14.180000 460.869000
59.546000 -13.617000 459.702000
60.020000 -13.604000 459.291000
60.474000 -13.588000 458.736000
60.925000 -13.571000 458.167000
61.377000 -13.555000 457.611000
61.867000 -13.547000 457.349000
62.319000 -13.531000 456.816000
62.795000 -13.521000 456.463000
63.266000 -13.509000 456.080000
63.744000 -13.500000 455.749000
64.214000 -13.488000 455.370000
64.705000 -13.482000 455.151000
65.173000 -13.471000 454.769000
65.665000 -13.464000 454.557000
66.149000 -13.457000 454.301000
66.640000 -13.450000 454.087000
67.123000 -13.443000 453.826000
67.623000 -13.438000 453.687000
68.101000 -13.430000 453.403000
68.606000 -13.427000 453.299000
69.099000 -13.422000 453.119000
69.593000 -13.417000 452.947000
70.093000 -13.413000 452.819000
70.584000 -13.407000 452.630000
71.111000 -13.408000 452.675000
71.605000 -13.404000 452.514000
72.134000 -13.405000 452.571000
72.630000 -13.401000 452.426000
73.152000 -13.402000 452.439000
73.639000 -13.396000 452.239000
74.135000 -13.391000 452.101000
74.625000 -13.386000 451.921000
75.145000 -13.386000 451.932000
75.662000 -13.386000 451.919000
76.213000 -13.392000 452.107000
76.740000 -13.393000 452.155000
77.287000 -13.398000 452.316000
77.824000 -13.401000 452.421000
78.381000 -13.407000 452.635000
78.900000 -13.407000 452.635000
79.463000 -13.415000 452.880000
79.985000 -13.415000 452.890000
80.547000 -13.422000 453.127000
81.069000 -13.422000 453.138000
81.669000 -13.435000 453.579000
82.198000 -13.437000 453.621000
82.788000 -13.448000 454.003000
83.330000 -13.451000 454.116000
83.933000 -13.464000 454.559000
84.500000 -13.471000 454.798000
85.103000 -13.484000 455.230000
85.690000 -13.494000 455.573000
86.305000 -13.509000 456.060000
86.910000 -13.521000 456.483000
87.545000 -13.539000 457.066000
88.173000 -13.554000 457.600000
88.827000 -13.574000 458.261000
89.503000 -13.597000 459.033000
90.204000 -13.623000 459.918000
59.546000 -13.089000 459.703000
60.020000 -13.077000 459.288000
60.481000 -13.063000 458.786000
60.933000 -13.047000 458.228000
61.386000 -13.031000 457.681000
61.873000 -13.023000 457.394000
62.327000 -13.008000 456.873000
62.800000 -12.998000 456.496000
63.275000 -12.987000 456.141000
63.753000 -12.978000 455.819000
64.222000 -12.967000 455.431000
64.706000 -12.959000 455.154000
65.180000 -12.950000 454.813000
65.675000 -12.944000 454.628000
66.156000 -12.936000 454.344000
66.648000 -12.930000 454.141000
67.128000 -12.923000 453.864000
67.625000 -12.918000 453.699000
68.111000 -12.911000 453.471000
68.615000 -12.908000 453.360000
69.101000 -12.902000 453.128000
69.606000 -12.899000 453.031000
70.105000 -12.895000 452.893000
70.596000 -12.890000 452.711000
71.115000 -12.890000 452.706000
71.612000 -12.885000 452.560000
72.137000 -12.886000 452.591000
72.629000 -12.881000 452.418000
73.151000 -12.882000 452.434000
73.631000 -12.875000 452.190000
74.161000 -12.877000 452.257000
74.649000 -12.871000 452.068000
75.179000 -12.873000 452.134000
75.685000 -12.871000 452.058000
76.232000 -12.876000 452.223000
76.760000 -12.877000 452.271000
77.305000 -12.882000 452.424000
77.832000 -12.883000 452.465000
78.386000 -12.888000 452.665000
78.909000 -12.889000 452.682000
79.473000 -12.896000 452.936000
79.990000 -12.896000 452.919000
80.566000 -12.905000 453.230000
81.086000 -12.904000 453.228000
81.666000 -12.914000 453.560000
82.196000 -12.915000 453.613000
82.795000 -12.928000 454.038000
83.344000 -12.932000 454.191000
83.939000 -12.943000 454.586000
84.520000 -12.952000 454.906000
85.118000 -12.964000 455.314000
85.708000 -12.974000 455.668000
86.328000 -12.988000 456.180000
86.925000 -12.999000 456.562000
87.561000 -13.016000 457.149000
88.186000 -13.031000 457.666000
88.828000 -13.048000 458.267000
89.508000 -13.070000 459.058000
90.210000 -13.096000 459.947000
60.489000 -12.538000 458.847000
60.942000 -12.522000 458.293000
61.394000 -12.507000 457.741000
61.881000 -12.500000 457.455000
62.333000 -12.485000 456.917000
62.810000 -12.475000 456.571000
63.289000 -12.466000 456.241000
63.762000 -12.457000 455.882000
64.235000 -12.447000 455.519000
64.718000 -12.439000 455.243000
65.190000 -12.429000 454.889000
65.688000 -12.425000 454.719000
66.167000 -12.417000 454.424000
66.657000 -12.411000 454.202000
67.138000 -12.403000 453.932000
67.637000 -12.399000 453.779000
68.123000 -12.393000 453.550000
68.627000 -12.390000 453.435000
69.111000 -12.383000 453.195000
69.609000 -12.379000 453.050000
70.113000 -12.376000 452.945000
70.608000 -12.372000 452.787000
71.123000 -12.371000 452.757000
71.616000 -12.366000 452.581000
72.144000 -12.368000 452.635000
72.634000 -12.363000 452.454000
73.155000 -12.363000 452.463000
73.646000 -12.358000 452.285000
74.169000 -12.359000 452.306000
74.673000 -12.356000 452.211000
75.199000 -12.357000 452.256000
75.711000 -12.356000 452.211000
76.253000 -12.360000 452.348000
76.778000 -12.361000 452.380000
77.311000 -12.363000 452.459000
77.837000 -12.364000 452.496000
78.399000 -12.371000 452.741000
78.916000 -12.370000 452.726000
79.484000 -12.378000 452.997000
80.004000 -12.378000 452.998000
80.582000 -12.387000 453.323000
81.110000 -12.388000 453.362000
81.686000 -12.396000 453.672000
82.211000 -12.397000 453.694000
82.807000 -12.408000 454.106000
83.363000 -12.413000 454.294000
83.955000 -12.424000 454.676000
84.530000 -12.431000 454.960000
85.126000 -12.442000 455.353000
85.723000 -12.453000 455.749000
86.337000 -12.466000 456.225000
86.935000 -12.477000 456.618000
87.583000 -12.494000 457.263000
88.207000 -12.508000 457.775000
88.856000 -12.526000 458.410000
89.538000 -12.547000 459.208000
90.241000 -12.572000 460.107000
60.496000 -12.012000 458.899000
60.954000 -11.999000 458.383000
61.412000 -11.985000 457.870000
61.896000 -11.977000 457.564000
62.349000 -11.963000 457.032000
62.828000 -11.954000 456.698000
63.300000 -11.945000 456.321000
63.775000 -11.936000 455.976000
64.251000 -11.927000 455.636000
64.733000 -11.919000 455.346000
65.205000 -11.910000 454.991000
65.699000 -11.905000 454.791000
66.182000 -11.898000 454.526000
66.670000 -11.892000 454.296000
67.158000 -11.886000 454.067000
67.651000 -11.881000 453.879000
68.131000 -11.873000 453.600000
68.642000 -11.872000 453.537000
69.128000 -11.866000 453.308000
69.626000 -11.862000 453.164000
70.120000 -11.857000 452.991000
70.623000 -11.854000 452.880000
71.134000 -11.853000 452.821000
71.625000 -11.848000 452.639000
72.146000 -11.848000 452.650000
72.643000 -11.845000 452.508000
73.170000 -11.846000 452.550000
73.661000 -11.841000 452.379000
74.192000 -11.843000 452.448000
74.688000 -11.839000 452.305000
75.229000 -11.843000 452.434000
75.734000 -11.840000 452.346000
76.277000 -11.844000 452.488000
76.797000 -11.844000 452.492000
77.329000 -11.846000 452.566000
77.855000 -11.847000 452.603000
78.409000 -11.852000 452.798000
78.925000 -11.852000 452.777000
79.501000 -11.860000 453.097000
80.016000 -11.859000 453.065000
80.603000 -11.869000 453.444000
81.126000 -11.870000 453.456000
81.706000 -11.878000 453.781000
82.238000 -11.880000 453.846000
82.831000 -11.890000 454.235000
83.382000 -11.894000 454.396000
83.977000 -11.905000 454.796000
84.552000 -11.912000 455.079000
85.156000 -11.924000 455.517000
85.749000 -11.933000 455.884000
86.359000 -11.945000 456.342000
86.957000 -11.955000 456.731000
87.603000 -11.972000 457.368000
88.235000 -11.986000 457.921000
88.894000 -12.004000 458.611000
89.582000 -12.026000 459.435000
60.513000 -11.488000 459.027000
60.973000 -11.476000 458.523000
61.437000 -11.464000 458.059000
61.912000 -11.455000 457.680000
62.366000 -11.441000 457.155000
62.846000 -11.433000 456.831000
63.317000 -11.424000 456.448000
63.788000 -11.414000 456.069000
64.261000 -11.405000 455.703000
64.749000 -11.399000 455.458000
65.222000 -11.390000 455.112000
65.717000 -11.385000 454.918000
66.204000 -11.379000 454.678000
66.690000 -11.373000 454.430000
67.171000 -11.366000 454.153000
67.666000 -11.362000 453.978000
68.151000 -11.356000 453.734000
68.654000 -11.353000 453.615000
69.144000 -11.348000 453.412000
69.645000 -11.345000 453.283000
70.136000 -11.340000 453.098000
70.637000 -11.337000 452.973000
71.150000 -11.336000 452.924000
71.642000 -11.331000 452.749000
72.160000 -11.331000 452.740000
72.654000 -11.327000 452.575000
73.183000 -11.328000 452.633000
73.680000 -11.325000 452.496000
74.208000 -11.326000 452.546000
74.709000 -11.323000 452.431000
75.242000 -11.325000 452.513000
75.752000 -11.324000 452.454000
76.301000 -11.328000 452.630000
76.815000 -11.327000 452.598000
77.348000 -11.329000 452.673000
77.879000 -11.331000 452.740000
78.427000 -11.335000 452.905000
78.943000 -11.334000 452.881000
79.517000 -11.342000 453.189000
80.033000 -11.341000 453.161000
80.629000 -11.352000 453.590000
81.144000 -11.351000 453.553000
81.725000 -11.360000 453.889000
82.268000 -11.363000 454.012000
82.862000 -11.373000 454.407000
83.415000 -11.377000 454.580000
84.002000 -11.386000 454.932000
84.572000 -11.392000 455.187000
85.187000 -11.405000 455.682000
85.774000 -11.413000 456.020000
86.386000 -11.425000 456.484000
86.992000 -11.435000 456.917000
87.639000 -11.451000 457.555000
88.279000 -11.466000 458.147000
88.938000 -11.484000 458.836000
89.630000 -11.505000 459.680000
60.538000 -10.966000 459.222000
60.988000 -10.952000 458.642000
61.457000 -10.942000 458.212000
61.931000 -10.933000 457.827000
62.385000 -10.920000 457.297000
62.865000 -10.912000 456.973000
63.333000 -10.902000 456.562000
63.811000 -10.894000 456.233000
64.284000 -10.886000 455.867000
64.769000 -10.879000 455.601000
65.242000 -10.871000 455.252000
65.731000 -10.865000 455.016000
66.221000 -10.860000 454.791000
66.707000 -10.854000 454.548000
67.195000 -10.849000 454.317000
67.690000 -10.844000 454.135000
68.173000 -10.838000 453.879000
68.673000 -10.835000 453.742000
69.158000 -10.829000 453.503000
69.664000 -10.827000 453.410000
70.157000 -10.823000 453.232000
70.661000 -10.820000 453.125000
71.160000 -10.817000 452.987000
71.663000 -10.814000 452.879000
72.183000 -10.814000 452.880000
72.676000 -10.810000 452.711000
73.202000 -10.811000 452.752000
73.705000 -10.809000 452.645000
74.234000 -10.810000 452.703000
74.732000 -10.807000 452.572000
75.267000 -10.809000 452.661000
75.778000 -10.808000 452.610000
76.321000 -10.811000 452.750000
76.837000 -10.811000 452.728000
77.373000 -10.813000 452.819000
77.899000 -10.814000 452.853000
78.451000 -10.818000 453.040000
78.964000 -10.817000 452.998000
79.544000 -10.825000 453.342000
80.058000 -10.825000 453.304000
80.648000 -10.834000 453.694000
81.163000 -10.833000 453.661000
81.744000 -10.841000 453.992000
82.290000 -10.844000 454.130000
82.890000 -10.855000 454.559000
83.454000 -10.860000 454.788000
84.038000 -10.868000 455.127000
84.608000 -10.874000 455.380000
85.222000 -10.886000 455.867000
85.812000 -10.894000 456.219000
86.428000 -10.906000 456.710000
87.031000 -10.916000 457.120000
87.676000 -10.931000 457.748000
88.327000 -10.946000 458.399000
88.990000 -10.963000 459.102000
89.665000 -10.981000 459.860000
60.556000 -10.442000 459.353000
61.019000 -10.431000 458.872000
61.489000 -10.421000 458.445000
61.955000 -10.411000 458.001000
62.400000 -10.397000 457.406000
62.886000 -10.391000 457.121000
63.353000 -10.381000 456.706000
63.833000 -10.374000 456.386000
64.307000 -10.366000 456.034000
64.787000 -10.359000 455.727000
65.264000 -10.352000 455.400000
65.749000 -10.346000 455.140000
66.232000 -10.340000 454.869000
66.730000 -10.336000 454.700000
67.221000 -10.331000 454.493000
67.707000 -10.326000 454.249000
68.197000 -10.321000 454.044000
68.694000 -10.317000 453.882000
69.174000 -10.311000 453.607000
69.689000 -10.310000 453.569000
70.177000 -10.305000 453.359000
70.685000 -10.303000 453.278000
71.182000 -10.300000 453.127000
71.689000 -10.298000 453.046000
72.204000 -10.297000 453.011000
72.703000 -10.294000 452.880000
73.224000 -10.295000 452.884000
73.722000 -10.291000 452.751000
74.257000 -10.294000 452.842000
74.759000 -10.291000 452.737000
75.293000 -10.293000 452.822000
75.800000 -10.291000 452.742000
76.340000 -10.294000 452.862000
76.845000 -10.292000 452.772000
77.395000 -10.296000 452.952000
77.917000 -10.296000 452.962000
78.475000 -10.301000 453.179000
78.989000 -10.300000 453.141000
79.574000 -10.309000 453.509000
80.081000 -10.307000 453.435000
80.676000 -10.316000 453.850000
81.192000 -10.316000 453.822000
81.772000 -10.323000 454.147000
82.320000 -10.327000 454.298000
82.906000 -10.335000 454.647000
83.475000 -10.340000 454.905000
84.061000 -10.348000 455.248000
84.637000 -10.355000 455.535000
85.246000 -10.365000 455.994000
