62.250000 -0.428000 468.132000
62.758000 -0.428000 467.909000
63.885000 -0.432000 472.265000
67.317000 -0.433000 473.522000
67.883000 -0.433000 473.676000
68.427000 -0.433000 473.677000
-12.277000 0.108000 460.954000
-11.762000 0.108000 461.525000
-11.231000 0.108000 461.492000
-10.704000 0.108000 461.599000
-10.177000 0.108000 461.775000
-9.644000 0.108000 461.621000
-9.119000 0.108000 461.879000
-8.580000 0.108000 461.414000
-8.061000 0.108000 462.051000
-7.521000 0.108000 461.434000
-7.000000 0.108000 462.041000
-6.466000 0.108000 461.825000
-5.945000 0.108000 462.497000
-5.409000 0.108000 462.067000
-4.886000 0.108000 462.769000
-4.349000 0.108000 462.207000
-3.824000 0.108000 462.913000
-3.288000 0.108000 462.238000
-2.761000 0.109000 462.967000
-2.228000 0.108000 462.569000
-1.698000 0.109000 463.033000
-1.166000 0.108000 462.889000
-0.635000 0.109000 463.441000
-0.103000 0.109000 463.083000
0.429000 0.109000 463.916000
0.961000 0.109000 463.431000
1.494000 0.109000 463.837000
2.026000 0.109000 463.589000
2.559000 0.109000 463.744000
3.092000 0.109000 463.845000
3.624000 0.109000 463.757000
4.160000 0.109000 464.106000
4.692000 0.109000 463.998000
5.229000 0.109000 464.374000
5.764000 0.109000 464.513000
6.298000 0.109000 464.582000
6.832000 0.109000 464.601000
7.370000 0.109000 464.874000
7.899000 0.109000 464.588000
8.439000 0.109000 464.992000
8.967000 0.109000 464.650000
9.514000 0.109000 465.305000
10.039000 0.109000 464.889000
10.586000 0.109000 465.484000
11.113000 0.109000 465.176000
11.660000 0.109000 465.689000
12.190000 0.109000 465.491000
12.732000 0.109000 465.749000
13.257000 0.109000 465.425000
13.817000 0.109000 466.280000
14.332000 0.109000 465.633000
14.877000 0.109000 465.944000
15.404000 0.109000 465.709000
15.958000 0.109000 466.278000
16.483000 0.109000 465.957000
17.033000 0.109000 466.388000
17.564000 0.109000 466.256000
18.108000 0.109000 466.471000
18.644000 0.109000 466.496000
19.222000 0.110000 467.520000
19.716000 0.109000 466.510000
20.263000 0.109000 466.761000
20.797000 0.109000 466.713000
21.344000 0.109000 466.963000
21.878000 0.109000 466.919000
22.446000 0.110000 467.576000
22.938000 0.109000 466.665000
23.519000 0.110000 467.560000
24.026000 0.109000 466.977000
24.594000 0.110000 467.592000
25.130000 0.110000 467.563000
25.690000 0.110000 467.993000
26.208000 0.110000 467.656000
26.778000 0.110000 468.227000
27.277000 0.110000 467.561000
27.861000 0.110000 468.350000
28.350000 0.110000 467.550000
28.939000 0.110000 468.400000
29.424000 0.110000 467.556000
30.018000 0.110000 468.439000
30.502000 0.110000 467.624000
31.108000 0.110000 468.663000
31.611000 0.110000 468.143000
32.194000 0.110000 468.804000
32.697000 0.110000 468.291000
33.289000 0.110000 469.062000
33.782000 0.110000 468.423000
34.369000 0.110000 469.098000
34.856000 0.110000 468.406000
35.451000 0.110000 469.162000
35.937000 0.110000 468.468000
36.534000 0.110000 469.235000
37.017000 0.110000 468.520000
37.616000 0.110000 469.286000
38.101000 0.110000 468.619000
38.694000 0.110000 469.290000
39.188000 0.110000 468.746000
39.764000 0.110000 469.195000
40.273000 0.110000 468.849000
40.835000 0.110000 469.127000
41.356000 0.110000 468.925000
41.898000 0.110000 468.957000
42.420000 0.110000 468.782000
42.969000 0.110000 468.898000
43.508000 0.110000 468.907000
44.044000 0.110000 468.877000
44.567000 0.110000 468.718000
45.125000 0.110000 468.917000
45.629000 0.110000 468.571000
46.207000 0.110000 468.975000
46.694000 0.110000 468.458000
47.289000 0.110000 469.025000
47.759000 0.110000 468.351000
48.357000 0.110000 468.931000
48.830000 0.110000 468.302000
49.438000 0.110000 468.969000
49.899000 0.110000 468.246000
50.515000 0.110000 468.971000
50.966000 0.110000 468.172000
51.570000 0.110000 468.770000
52.033000 0.110000 468.095000
52.616000 0.110000 468.496000
53.100000 0.110000 468.023000
53.681000 0.110000 468.408000
54.166000 0.110000 467.945000
54.743000 0.110000 468.289000
55.227000 0.110000 467.830000
55.807000 0.110000 468.188000
56.272000 0.110000 467.585000
56.873000 0.110000 468.112000
57.331000 0.110000 467.468000
57.937000 0.110000 468.026000
58.399000 0.110000 467.424000
59.009000 0.110000 468.004000
59.478000 0.110000 467.467000
60.069000 0.110000 467.890000
60.549000 0.110000 467.446000
61.112000 0.110000 467.645000
61.617000 0.110000 467.408000
62.153000 0.110000 467.398000
62.632000 0.109000 466.973000
63.898000 0.111000 472.367000
-12.294000 0.638000 461.596000
-11.768000 0.638000 461.765000
-11.246000 0.639000 462.089000
-10.712000 0.639000 461.945000
-10.187000 0.639000 462.188000
-9.655000 0.639000 462.140000
-9.126000 0.639000 462.253000
-8.600000 0.639000 462.463000
-8.066000 0.639000 462.315000
-7.533000 0.639000 462.163000
-7.005000 0.639000 462.391000
-6.475000 0.639000 462.442000
-5.949000 0.640000 462.854000
-5.415000 0.640000 462.569000
-4.888000 0.640000 463.003000
-4.356000 0.640000 463.007000
-3.826000 0.640000 463.214000
-3.293000 0.640000 463.016000
-2.764000 0.641000 463.417000
-2.231000 0.641000 463.282000
-1.701000 0.641000 463.709000
-1.167000 0.641000 463.369000
-0.636000 0.641000 463.812000
-0.103000 0.641000 463.439000
0.429000 0.642000 464.064000
0.962000 0.641000 463.716000
1.496000 0.642000 464.254000
2.028000 0.642000 464.156000
2.563000 0.642000 464.376000
3.096000 0.642000 464.353000
3.630000 0.642000 464.521000
4.163000 0.642000 464.458000
4.701000 0.643000 464.908000
5.232000 0.642000 464.676000
5.770000 0.643000 464.994000
6.302000 0.643000 464.906000
6.839000 0.643000 465.087000
7.377000 0.643000 465.362000
7.910000 0.643000 465.243000
8.448000 0.644000 465.468000
8.976000 0.643000 465.147000
9.519000 0.644000 465.590000
10.044000 0.643000 465.144000
10.593000 0.644000 465.777000
11.124000 0.644000 465.599000
11.669000 0.644000 466.028000
12.198000 0.644000 465.811000
12.748000 0.645000 466.334000
13.271000 0.644000 465.906000
13.822000 0.645000 466.459000
14.340000 0.644000 465.870000
14.895000 0.645000 466.503000
15.414000 0.644000 466.000000
15.971000 0.645000 466.655000
16.494000 0.645000 466.271000
17.050000 0.645000 466.850000
17.577000 0.645000 466.598000
18.135000 0.646000 467.186000
18.655000 0.645000 466.759000
19.229000 0.647000 467.699000
19.725000 0.645000 466.730000
20.295000 0.646000 467.498000
20.811000 0.646000 467.043000
21.367000 0.646000 467.471000
21.893000 0.646000 467.228000
22.460000 0.647000 467.865000
22.955000 0.646000 467.017000
23.536000 0.647000 467.895000
24.053000 0.646000 467.505000
24.615000 0.647000 467.997000
25.138000 0.647000 467.720000
25.709000 0.648000 468.332000
26.219000 0.647000 467.848000
26.792000 0.648000 468.472000
27.295000 0.647000 467.873000
27.875000 0.648000 468.594000
28.375000 0.647000 467.968000
28.947000 0.648000 468.520000
29.449000 0.647000 467.943000
30.021000 0.648000 468.492000
30.517000 0.647000 467.847000
31.106000 0.648000 468.632000
31.606000 0.647000 468.070000
32.189000 0.648000 468.727000
32.687000 0.647000 468.154000
33.275000 0.648000 468.863000
33.766000 0.647000 468.201000
34.351000 0.648000 468.849000
34.836000 0.647000 468.134000
35.432000 0.648000 468.902000
35.912000 0.647000 468.151000
36.497000 0.648000 468.759000
36.992000 0.647000 468.211000
37.573000 0.648000 468.751000
38.061000 0.647000 468.134000
38.636000 0.648000 468.589000
39.134000 0.647000 468.106000
39.706000 0.648000 468.509000
40.206000 0.647000 468.068000
40.774000 0.648000 468.422000
41.270000 0.647000 467.952000
41.838000 0.647000 468.292000
42.318000 0.647000 467.653000
42.909000 0.647000 468.241000
43.383000 0.646000 467.559000
43.984000 0.647000 468.239000
44.452000 0.646000 467.502000
45.054000 0.647000 468.185000
45.531000 0.646000 467.564000
46.117000 0.647000 468.060000
46.601000 0.646000 467.518000
47.187000 0.647000 468.013000
47.672000 0.646000 467.498000
48.252000 0.647000 467.913000
48.739000 0.646000 467.429000
49.313000 0.647000 467.783000
49.820000 0.646000 467.508000
50.359000 0.646000 467.521000
50.881000 0.646000 467.387000
51.429000 0.646000 467.487000
51.930000 0.646000 467.172000
52.503000 0.646000 467.498000
52.994000 0.646000 467.089000
53.578000 0.646000 467.506000
54.068000 0.646000 467.099000
54.646000 0.646000 467.456000
55.131000 0.646000 467.016000
55.715000 0.646000 467.417000
56.191000 0.646000 466.911000
56.781000 0.646000 467.362000
57.255000 0.645000 466.844000
57.840000 0.646000 467.240000
58.324000 0.645000 466.823000
58.897000 0.646000 467.115000
59.396000 0.645000 466.823000
59.938000 0.646000 466.867000
60.458000 0.645000 466.740000
60.995000 0.645000 466.756000
61.511000 0.645000 466.602000
-12.315000 1.170000 462.395000
-11.775000 1.169000 462.052000
-11.255000 1.171000 462.490000
-10.719000 1.170000 462.247000
-10.192000 1.170000 462.448000
-9.663000 1.171000 462.535000
-9.130000 1.170000 462.410000
-8.604000 1.171000 462.713000
-8.070000 1.171000 462.571000
-7.538000 1.171000 462.515000
-7.017000 1.172000 463.142000
-6.476000 1.171000 462.529000
-5.955000 1.173000 463.320000
-5.421000 1.172000 463.137000
-4.891000 1.172000 463.238000
-4.363000 1.174000 463.760000
-3.828000 1.173000 463.393000
-3.298000 1.174000 463.726000
-2.765000 1.173000 463.654000
-2.234000 1.174000 463.809000
-1.702000 1.175000 464.168000
-1.169000 1.174000 463.915000
-0.636000 1.175000 464.180000
-0.103000 1.174000 463.845000
0.430000 1.175000 464.404000
0.963000 1.175000 464.254000
1.497000 1.176000 464.650000
2.031000 1.176000 464.634000
2.566000 1.177000 464.892000
3.099000 1.176000 464.816000
3.636000 1.177000 465.197000
4.167000 1.177000 464.864000
4.705000 1.178000 465.329000
5.235000 1.177000 464.935000
5.774000 1.178000 465.306000
6.307000 1.178000 465.276000
6.844000 1.178000 465.440000
7.383000 1.179000 465.695000
7.920000 1.179000 465.874000
8.454000 1.179000 465.801000
8.993000 1.179000 466.014000
9.525000 1.179000 465.861000
10.058000 1.179000 465.776000
10.598000 1.179000 465.996000
11.131000 1.179000 465.893000
11.674000 1.180000 466.251000
12.206000 1.180000 466.089000
12.753000 1.181000 466.533000
13.279000 1.180000 466.210000
13.830000 1.181000 466.733000
14.348000 1.180000 466.149000
14.907000 1.182000 466.890000
15.425000 1.180000 466.347000
15.984000 1.182000 467.017000
16.507000 1.181000 466.636000
17.062000 1.182000 467.162000
17.588000 1.182000 466.904000
18.161000 1.184000 467.848000
18.655000 1.181000 466.776000
19.234000 1.184000 467.805000
19.745000 1.182000 467.201000
20.308000 1.184000 467.810000
20.824000 1.183000 467.323000
21.381000 1.184000 467.771000
21.902000 1.183000 467.438000
22.453000 1.184000 467.736000
22.985000 1.184000 467.626000
23.537000 1.184000 467.917000
24.075000 1.184000 467.936000
24.614000 1.184000 467.976000
25.153000 1.184000 468.008000
25.698000 1.185000 468.134000
26.231000 1.185000 468.066000
26.776000 1.185000 468.182000
27.308000 1.185000 468.100000
27.860000 1.185000 468.330000
28.383000 1.185000 468.095000
28.931000 1.185000 468.261000
29.462000 1.185000 468.158000
30.013000 1.185000 468.370000
30.511000 1.184000 467.749000
31.091000 1.185000 468.407000
31.592000 1.184000 467.859000
32.173000 1.186000 468.491000
32.670000 1.184000 467.905000
33.247000 1.186000 468.473000
33.747000 1.184000 467.940000
34.316000 1.185000 468.379000
34.817000 1.184000 467.881000
35.393000 1.185000 468.397000
35.891000 1.184000 467.871000
36.423000 1.184000 467.806000
36.970000 1.184000 467.928000
37.517000 1.185000 468.057000
38.034000 1.184000 467.798000
38.578000 1.184000 467.882000
39.095000 1.184000 467.638000
39.661000 1.184000 467.979000
40.157000 1.183000 467.499000
40.732000 1.184000 467.937000
41.218000 1.183000 467.362000
41.801000 1.184000 467.875000
42.279000 1.182000 467.218000
42.872000 1.184000 467.839000
43.346000 1.182000 467.156000
43.945000 1.184000 467.818000
44.410000 1.182000 467.063000
45.012000 1.184000 467.748000
45.481000 1.182000 467.045000
46.067000 1.183000 467.549000
46.546000 1.182000 466.970000
47.124000 1.183000 467.381000
47.613000 1.182000 466.917000
48.185000 1.183000 467.267000
48.665000 1.181000 466.725000
49.253000 1.182000 467.221000
49.718000 1.181000 466.549000
50.312000 1.182000 467.085000
50.764000 1.180000 466.313000
51.377000 1.182000 467.019000
51.831000 1.180000 466.279000
52.446000 1.182000 466.986000
52.906000 1.180000 466.317000
53.510000 1.182000 466.911000
53.984000 1.180000 466.379000
54.571000 1.181000 466.819000
55.054000 1.180000 466.367000
55.619000 1.181000 466.610000
56.132000 1.180000 466.429000
56.684000 1.181000 466.558000
57.203000 1.180000 466.424000
57.732000 1.180000 466.369000
58.271000 1.180000 466.402000
58.790000 1.180000 466.268000
59.335000 1.180000 466.345000
59.855000 1.180000 466.224000
60.390000 1.180000 466.220000
60.928000 1.180000 466.237000
61.440000 1.180000 466.061000
-11.784000 1.701000 462.391000
-11.264000 1.703000 462.843000
-10.727000 1.702000 462.592000
-10.204000 1.703000 462.985000
-9.669000 1.703000 462.826000
-9.146000 1.704000 463.268000
-8.608000 1.703000 462.932000
-8.083000 1.704000 463.284000
-7.543000 1.703000 462.819000
-7.022000 1.705000 463.491000
-6.480000 1.703000 462.767000
-5.960000 1.706000 463.709000
-5.429000 1.706000 463.804000
-4.894000 1.705000 463.544000
-4.366000 1.707000 464.041000
-3.830000 1.706000 463.590000
-3.301000 1.708000 464.152000
-2.769000 1.708000 464.302000
-2.236000 1.708000 464.280000
-1.704000 1.709000 464.509000
-1.170000 1.709000 464.593000
-0.637000 1.709000 464.626000
-0.104000 1.710000 464.871000
0.430000 1.710000 464.732000
0.964000 1.710000 464.897000
1.498000 1.710000 464.850000
2.033000 1.711000 465.126000
2.568000 1.712000 465.366000
3.101000 1.711000 465.136000
3.637000 1.712000 465.432000
4.173000 1.713000 465.520000
4.709000 1.713000 465.730000
5.242000 1.713000 465.535000
5.778000 1.713000 465.666000
6.314000 1.713000 465.731000
6.849000 1.714000 465.782000
7.387000 1.714000 465.983000
7.927000 1.715000 466.240000
8.459000 1.715000 466.067000
9.001000 1.716000 466.437000
9.530000 1.715000 466.112000
10.072000 1.716000 466.402000
10.605000 1.716000 466.327000
11.141000 1.716000 466.330000
11.683000 1.717000 466.604000
12.215000 1.716000 466.436000
12.761000 1.718000 466.834000
13.291000 1.717000 466.622000
13.836000 1.718000 466.913000
14.353000 1.716000 466.288000
14.919000 1.719000 467.274000
15.449000 1.718000 467.059000
15.992000 1.719000 467.258000
16.520000 1.718000 467.028000
17.067000 1.719000 467.315000
17.596000 1.719000 467.114000
18.161000 1.721000 467.855000
18.662000 1.718000 466.944000
19.235000 1.721000 467.839000
19.750000 1.719000 467.312000
20.311000 1.721000 467.874000
20.831000 1.720000 467.475000
21.378000 1.721000 467.720000
21.904000 1.720000 467.472000
22.443000 1.720000 467.526000
22.975000 1.720000 467.430000
23.517000 1.720000 467.534000
24.067000 1.721000 467.785000
24.590000 1.720000 467.510000
25.139000 1.721000 467.737000
25.667000 1.720000 467.580000
26.205000 1.720000 467.595000
26.739000 1.720000 467.538000
27.273000 1.720000 467.499000
27.824000 1.721000 467.727000
28.342000 1.720000 467.424000
28.895000 1.721000 467.677000
29.409000 1.719000 467.312000
29.978000 1.721000 467.824000
30.474000 1.719000 467.195000
31.048000 1.721000 467.749000
31.545000 1.719000 467.162000
32.126000 1.721000 467.805000
32.614000 1.719000 467.104000
33.188000 1.721000 467.634000
33.690000 1.719000 467.145000
34.245000 1.720000 467.398000
34.759000 1.719000 467.105000
35.315000 1.720000 467.364000
35.829000 1.718000 467.060000
36.363000 1.718000 467.037000
36.892000 1.718000 466.942000
37.452000 1.719000 467.236000
37.944000 1.717000 466.693000
38.517000 1.719000 467.147000
39.007000 1.717000 466.592000
39.588000 1.719000 467.120000
40.076000 1.717000 466.560000
40.658000 1.719000 467.091000
41.149000 1.717000 466.576000
41.730000 1.718000 467.082000
42.219000 1.717000 466.564000
42.788000 1.718000 466.922000
43.289000 1.716000 466.540000
43.847000 1.717000 466.776000
44.360000 1.716000 466.536000
44.910000 1.717000 466.686000
45.420000 1.716000 466.416000
45.978000 1.717000 466.648000
46.473000 1.715000 466.241000
47.049000 1.717000 466.645000
47.530000 1.715000 466.105000
48.116000 1.717000 466.592000
48.581000 1.714000 465.917000
49.185000 1.717000 466.577000
49.640000 1.714000 465.814000
50.253000 1.716000 466.544000
50.705000 1.714000 465.774000
51.316000 1.716000 466.464000
51.772000 1.714000 465.743000
52.377000 1.716000 466.375000
52.837000 1.713000 465.704000
53.414000 1.715000 466.077000
53.893000 1.713000 465.588000
54.473000 1.714000 465.977000
54.957000 1.713000 465.549000
55.524000 1.714000 465.820000
56.017000 1.713000 465.472000
56.583000 1.713000 465.729000
57.073000 1.712000 465.366000
57.636000 1.713000 465.594000
58.114000 1.711000 465.143000
58.698000 1.713000 465.536000
59.159000 1.711000 464.956000
59.762000 1.713000 465.497000
60.232000 1.711000 464.997000
60.822000 1.712000 465.427000
61.301000 1.711000 465.009000
-11.792000 2.234000 462.726000
-11.270000 2.236000 463.102000
-10.734000 2.235000 462.900000
-10.213000 2.237000 463.387000
-9.673000 2.235000 463.019000
-9.157000 2.239000 463.805000
-8.611000 2.236000 463.101000
-8.092000 2.239000 463.834000
-7.549000 2.236000 463.151000
-7.030000 2.240000 464.023000
-6.487000 2.237000 463.315000
-5.965000 2.240000 464.088000
-5.432000 2.240000 464.095000
-4.907000 2.244000 464.830000
-4.368000 2.241000 464.284000
-3.836000 2.242000 464.358000
-3.303000 2.242000 464.451000
-2.772000 2.243000 464.724000
-2.238000 2.243000 464.658000
-1.705000 2.244000 464.796000
-1.172000 2.245000 465.105000
-0.637000 2.244000 464.925000
-0.104000 2.246000 465.321000
0.430000 2.245000 465.153000
0.965000 2.246000 465.306000
1.499000 2.245000 465.103000
2.034000 2.247000 465.501000
2.569000 2.248000 465.609000
3.104000 2.248000 465.580000
3.639000 2.248000 465.620000
4.181000 2.252000 466.443000
4.711000 2.249000 465.923000
5.248000 2.250000 466.102000
5.782000 2.250000 465.989000
6.319000 2.250000 466.095000
6.854000 2.250000 466.119000
7.390000 2.250000 466.155000
7.930000 2.252000 466.430000
8.462000 2.251000 466.258000
9.006000 2.253000 466.694000
9.537000 2.252000 466.455000
10.079000 2.253000 466.761000
10.616000 2.253000 466.791000
11.150000 2.253000 466.719000
11.691000 2.254000 466.929000
12.224000 2.253000 466.808000
12.768000 2.255000 467.087000
13.300000 2.254000 466.931000
13.838000 2.254000 467.000000
14.357000 2.252000 466.419000
14.916000 2.255000 467.155000
15.458000 2.256000 467.333000
15.994000 2.256000 467.318000
16.527000 2.255000 467.220000
17.065000 2.256000 467.258000
17.604000 2.256000 467.311000
18.142000 2.256000 467.360000
18.673000 2.255000 467.224000
19.225000 2.257000 467.581000
19.747000 2.256000 467.244000
20.305000 2.258000 467.732000
20.829000 2.257000 467.441000
21.370000 2.257000 467.534000
21.894000 2.256000 467.251000
22.433000 2.256000 467.312000
22.949000 2.254000 466.895000
23.495000 2.255000 467.084000
24.057000 2.257000 467.586000
24.570000 2.255000 467.138000
25.101000 2.255000 467.041000
25.648000 2.255000 467.220000
26.168000 2.254000 466.942000
26.717000 2.255000 467.157000
27.238000 2.254000 466.894000
27.790000 2.255000 467.161000
28.311000 2.254000 466.907000
28.864000 2.255000 467.171000
29.380000 2.254000 466.857000
29.932000 2.255000 467.105000
30.446000 2.253000 466.757000
30.974000 2.253000 466.641000
31.508000 2.253000 466.618000
32.072000 2.255000 467.024000
32.573000 2.252000 466.523000
33.120000 2.253000 466.683000
33.649000 2.252000 466.580000
34.183000 2.252000 466.565000
34.710000 2.252000 466.442000
35.257000 2.252000 466.591000
35.769000 2.251000 466.287000
36.327000 2.252000 466.574000
36.827000 2.250000 466.115000
37.415000 2.253000 466.772000
37.884000 2.249000 465.959000
38.476000 2.253000 466.647000
38.951000 2.249000 465.912000
39.535000 2.252000 466.490000
40.021000 2.249000 465.914000
40.592000 2.251000 466.328000
41.090000 2.249000 465.907000
41.658000 2.251000 466.277000
42.155000 2.249000 465.850000
42.712000 2.250000 466.089000
43.209000 2.248000 465.685000
43.775000 2.250000 466.015000
44.272000 2.248000 465.614000
44.844000 2.250000 466.003000
45.330000 2.247000 465.493000
45.916000 2.250000 466.016000
46.395000 2.247000 465.459000
46.992000 2.250000 466.073000
47.459000 2.247000 465.408000
48.059000 2.250000 466.048000
48.520000 2.246000 465.334000
49.110000 2.249000 465.858000
49.588000 2.246000 465.325000
50.184000 2.249000 465.901000
50.660000 2.246000 465.354000
51.235000 2.248000 465.727000
51.723000 2.246000 465.304000
52.282000 2.247000 465.529000
52.783000 2.246000 465.228000
53.340000 2.247000 465.431000
53.836000 2.245000 465.095000
54.404000 2.247000 465.389000
54.894000 2.245000 465.015000
55.465000 2.246000 465.320000
55.948000 2.244000 464.895000
56.528000 2.246000 465.278000
56.996000 2.243000 464.737000
57.584000 2.246000 465.178000
58.051000 2.243000 464.634000
58.648000 2.245000 465.143000
59.107000 2.243000 464.552000
59.709000 2.245000 465.081000
60.174000 2.243000 464.554000
60.760000 2.245000 464.955000
61.240000 2.243000 464.548000
61.788000 2.243000 464.658000
-11.803000 2.767000 463.124000
-11.277000 2.769000 463.372000
-10.741000 2.768000 463.200000
-10.222000 2.772000 463.796000
-9.678000 2.768000 463.269000
-9.161000 2.773000 464.025000
-8.616000 2.769000 463.337000
-8.098000 2.774000 464.144000
-7.554000 2.770000 463.495000
-7.037000 2.775000 464.458000
-6.493000 2.771000 463.725000
-5.975000 2.778000 464.813000
-5.435000 2.775000 464.338000
-4.912000 2.780000 465.259000
-4.371000 2.776000 464.511000
-3.844000 2.781000 465.305000
-3.306000 2.778000 464.843000
-2.774000 2.780000 465.142000
-2.239000 2.779000 465.022000
-1.706000 2.779000 465.091000
-1.172000 2.780000 465.223000
-0.638000 2.781000 465.377000
-0.104000 2.783000 465.666000
0.431000 2.783000 465.758000
0.966000 2.783000 465.662000
1.500000 2.783000 465.686000
2.035000 2.783000 465.703000
2.570000 2.783000 465.775000
3.108000 2.786000 466.153000
3.641000 2.784000 465.878000
4.181000 2.788000 466.492000
4.712000 2.785000 466.039000
5.253000 2.788000 466.499000
5.786000 2.787000 466.331000
6.324000 2.788000 466.478000
6.859000 2.787000 466.455000
7.394000 2.787000 466.395000
7.931000 2.788000 466.510000
8.463000 2.786000 466.273000
9.008000 2.789000 466.780000
9.543000 2.789000 466.752000
10.080000 2.789000 466.793000
10.612000 2.788000 466.607000
11.151000 2.789000 466.744000
11.690000 2.790000 466.886000
12.230000 2.791000 467.024000
12.765000 2.791000 466.982000
13.304000 2.791000 467.075000
13.836000 2.790000 466.918000
14.367000 2.789000 466.742000
14.908000 2.790000 466.919000
15.438000 2.789000 466.726000
15.982000 2.790000 466.974000
16.515000 2.790000 466.870000
17.052000 2.790000 466.888000
17.592000 2.791000 466.992000
18.120000 2.789000 466.778000
18.657000 2.790000 466.824000
19.183000 2.788000 466.580000
19.727000 2.789000 466.764000
20.270000 2.790000 466.925000
20.806000 2.790000 466.932000
21.333000 2.789000 466.720000
21.864000 2.788000 466.618000
22.400000 2.788000 466.615000
22.910000 2.785000 466.100000
23.460000 2.787000 466.390000
24.002000 2.788000 466.525000
24.543000 2.788000 466.619000
25.052000 2.785000 466.128000
25.616000 2.789000 466.648000
26.122000 2.785000 466.121000
26.689000 2.789000 466.673000
27.197000 2.786000 466.185000
27.750000 2.788000 466.489000
28.270000 2.786000 466.234000
28.813000 2.787000 466.353000
29.345000 2.786000 466.300000
29.871000 2.786000 466.156000
30.405000 2.785000 466.133000
30.932000 2.785000 466.000000
31.460000 2.784000 465.907000
32.010000 2.785000 466.124000
32.520000 2.783000 465.754000
33.068000 2.784000 465.946000
33.592000 2.783000 465.799000
34.129000 2.784000 465.815000
34.652000 2.783000 465.666000
35.201000 2.784000 465.852000
35.717000 2.782000 465.605000
36.271000 2.784000 465.857000
36.781000 2.782000 465.532000
37.351000 2.785000 465.982000
37.848000 2.782000 465.516000
38.406000 2.783000 465.796000
38.910000 2.781000 465.430000
39.455000 2.782000 465.555000
39.971000 2.781000 465.329000
40.528000 2.782000 465.600000
41.023000 2.780000 465.151000
41.596000 2.782000 465.584000
42.073000 2.778000 464.940000
42.658000 2.782000 465.499000
43.126000 2.777000 464.788000
43.726000 2.782000 465.495000
44.187000 2.777000 464.722000
44.787000 2.781000 465.413000
45.250000 2.777000 464.678000
45.849000 2.781000 465.337000
46.314000 2.777000 464.639000
46.902000 2.780000 465.188000
47.386000 2.777000 464.693000
47.953000 2.779000 465.019000
48.446000 2.776000 464.619000
49.007000 2.778000 464.881000
49.489000 2.775000 464.399000
50.068000 2.778000 464.820000
50.557000 2.775000 464.413000
51.122000 2.777000 464.702000
51.609000 2.774000 464.284000
52.183000 2.777000 464.643000
52.661000 2.774000 464.155000
53.245000 2.776000 464.602000
53.722000 2.773000 464.112000
54.309000 2.776000 464.572000
54.788000 2.773000 464.114000
55.363000 2.776000 464.465000
55.849000 2.773000 464.070000
56.424000 2.775000 464.421000
56.911000 2.773000 464.039000
57.478000 2.775000 464.321000
57.976000 2.773000 464.038000
58.517000 2.773000 464.098000
59.037000 2.773000 464.002000
59.536000 2.771000 463.739000
60.096000 2.772000 463.951000
60.615000 2.772000 463.843000
61.156000 2.772000 463.910000
61.683000 2.772000 463.862000
62.206000 2.771000 463.795000
62.711000 2.770000 463.590000
63.171000 2.767000 463.061000
-11.815000 3.303000 463.617000
-11.286000 3.304000 463.729000
-10.750000 3.303000 463.582000
-10.227000 3.306000 464.041000
-9.685000 3.303000 463.601000
-9.167000 3.308000 464.312000
-8.621000 3.303000 463.638000
-8.105000 3.309000 464.540000
-7.564000 3.306000 464.061000
-7.044000 3.312000 464.972000
-6.501000 3.308000 464.293000
-5.984000 3.316000 465.510000
-5.437000 3.309000 464.462000
-4.917000 3.318000 465.705000
-4.371000 3.310000 464.567000
-3.846000 3.317000 465.586000
-3.309000 3.314000 465.242000
-2.776000 3.316000 465.510000
-2.241000 3.315000 465.312000
-1.707000 3.317000 465.553000
-1.173000 3.316000 465.405000
-0.639000 3.322000 466.376000
-0.104000 3.319000 465.864000
0.431000 3.320000 466.084000
0.966000 3.319000 465.933000
1.502000 3.320000 466.079000
2.037000 3.320000 466.041000
2.572000 3.320000 466.000000
3.109000 3.322000 466.343000
3.642000 3.320000 466.003000
4.182000 3.324000 466.602000
4.713000 3.320000 466.092000
5.254000 3.324000 466.595000
5.788000 3.323000 466.447000
6.325000 3.324000 466.537000
6.861000 3.324000 466.560000
7.396000 3.324000 466.555000
7.932000 3.324000 466.572000
8.462000 3.321000 466.233000
9.008000 3.325000 466.774000
9.540000 3.324000 466.603000
10.077000 3.324000 466.652000
10.609000 3.323000 466.469000
11.151000 3.325000 466.733000
11.686000 3.325000 466.718000
12.222000 3.325000 466.731000
12.755000 3.324000 466.591000
13.292000 3.324000 466.640000
13.824000 3.323000 466.504000
14.347000 3.320000 466.099000
14.905000 3.326000 466.819000
15.418000 3.321000 466.133000
15.972000 3.325000 466.673000
16.496000 3.322000 466.328000
17.031000 3.322000 466.335000
17.568000 3.322000 466.357000
18.092000 3.320000 466.065000
18.635000 3.322000 466.256000
19.157000 3.319000 465.933000
19.689000 3.319000 465.867000
20.229000 3.320000 465.982000
20.782000 3.323000 466.387000
21.296000 3.319000 465.924000
21.826000 3.318000 465.798000
22.372000 3.320000 466.044000
22.876000 3.315000 465.399000
23.423000 3.317000 465.665000
23.958000 3.317000 465.671000
24.498000 3.318000 465.768000
25.025000 3.317000 465.627000
25.566000 3.318000 465.739000
26.098000 3.318000 465.692000
26.644000 3.319000 465.889000
27.160000 3.317000 465.557000
27.701000 3.317000 465.672000
28.225000 3.316000 465.484000
28.768000 3.317000 465.621000
29.294000 3.316000 465.480000
29.835000 3.317000 465.590000
30.351000 3.315000 465.307000
30.900000 3.316000 465.522000
31.390000 3.312000 464.864000
31.968000 3.316000 465.511000
32.466000 3.312000 464.980000
33.026000 3.315000 465.355000
33.535000 3.313000 464.995000
34.084000 3.314000 465.212000
34.602000 3.313000 464.990000
35.150000 3.314000 465.172000
35.672000 3.313000 465.022000
36.204000 3.313000 464.988000
36.741000 3.313000 465.029000
37.258000 3.311000 464.818000
37.812000 3.313000 465.070000
38.327000 3.312000 464.844000
38.872000 3.312000 464.968000
39.388000 3.311000 464.766000
39.920000 3.311000 464.747000
40.479000 3.313000 465.027000
40.961000 3.309000 464.440000
41.548000 3.313000 465.046000
42.022000 3.308000 464.382000
42.612000 3.313000 465.002000
43.081000 3.308000 464.297000
43.682000 3.313000 465.024000
44.140000 3.307000 464.222000
44.743000 3.312000 464.952000
45.206000 3.307000 464.225000
45.799000 3.311000 464.831000
46.257000 3.306000 464.076000
46.819000 3.308000 464.361000
47.334000 3.307000 464.181000
47.874000 3.307000 464.253000
48.383000 3.306000 464.022000
48.952000 3.308000 464.360000
49.415000 3.303000 463.702000
50.007000 3.307000 464.253000
50.466000 3.303000 463.578000
51.069000 3.307000 464.220000
51.524000 3.302000 463.514000
52.128000 3.307000 464.156000
52.584000 3.302000 463.480000
53.186000 3.306000 464.088000
53.648000 3.302000 463.473000
54.232000 3.305000 463.917000
54.700000 3.301000 463.369000
55.285000 3.304000 463.810000
55.769000 3.301000 463.408000
56.329000 3.303000 463.640000
56.833000 3.301000 463.407000
57.382000 3.302000 463.544000
57.903000 3.302000 463.449000
58.434000 3.302000 463.440000
58.952000 3.301000 463.331000
59.482000 3.301000 463.319000
59.987000 3.299000 463.111000
60.544000 3.301000 463.298000
61.059000 3.300000 463.169000
61.614000 3.301000 463.349000
62.117000 3.299000 463.128000
62.646000 3.299000 463.108000
63.141000 3.297000 462.838000
-11.825000 3.838000 464.000000
-11.294000 3.839000 464.091000
-10.761000 3.839000 464.063000
-10.234000 3.841000 464.329000
-9.699000 3.840000 464.248000
-9.172000 3.843000 464.553000
-8.633000 3.841000 464.275000
-8.109000 3.845000 464.779000
-7.571000 3.842000 464.498000
-7.049000 3.849000 465.243000
-6.505000 3.843000 464.557000
-5.986000 3.853000 465.716000
-5.439000 3.844000 464.659000
-4.918000 3.854000 465.872000
-4.372000 3.844000 464.683000
-3.848000 3.853000 465.809000
-3.311000 3.851000 465.498000
-2.779000 3.854000 465.892000
-2.242000 3.852000 465.599000
-1.709000 3.855000 465.979000
-1.173000 3.852000 465.629000
-0.639000 3.856000 466.121000
-0.104000 3.853000 465.830000
0.431000 3.855000 466.050000
0.966000 3.854000 465.919000
1.501000 3.855000 466.001000
2.036000 3.855000 465.990000
2.571000 3.854000 465.934000
3.109000 3.858000 466.328000
3.642000 3.855000 465.965000
4.182000 3.860000 466.595000
4.713000 3.855000 466.054000
5.251000 3.858000 466.370000
5.783000 3.856000 466.092000
6.320000 3.857000 466.199000
6.857000 3.858000 466.328000
7.390000 3.856000 466.143000
7.925000 3.856000 466.172000
8.455000 3.854000 465.854000
9.003000 3.859000 466.507000
9.529000 3.855000 466.048000
10.065000 3.856000 466.112000
10.597000 3.854000 465.954000
11.132000 3.854000 465.956000
11.670000 3.856000 466.091000
12.201000 3.854000 465.925000
12.739000 3.855000 466.030000
13.272000 3.854000 465.948000
13.799000 3.852000 465.665000
14.323000 3.849000 465.333000
14.883000 3.856000 466.140000
15.405000 3.853000 465.731000
15.939000 3.852000 465.699000
16.474000 3.853000 465.718000
16.998000 3.850000 465.430000
17.536000 3.851000 465.519000
18.065000 3.850000 465.368000
18.598000 3.849000 465.343000
19.139000 3.851000 465.502000
19.641000 3.844000 464.723000
20.198000 3.849000 465.262000
20.719000 3.846000 464.978000
21.273000 3.850000 465.408000
21.786000 3.846000 464.954000
22.345000 3.851000 465.481000
22.845000 3.845000 464.782000
23.371000 3.843000 464.622000
23.927000 3.847000 465.063000
24.446000 3.845000 464.776000
24.991000 3.847000 464.990000
25.509000 3.844000 464.693000
26.060000 3.847000 465.013000
26.586000 3.846000 464.871000
27.121000 3.846000 464.882000
27.646000 3.844000 464.738000
28.176000 3.844000 464.685000
28.720000 3.845000 464.845000
29.236000 3.843000 464.572000
29.798000 3.847000 465.010000
30.303000 3.843000 464.573000
30.850000 3.845000 464.772000
31.353000 3.841000 464.323000
31.915000 3.844000 464.733000
32.425000 3.842000 464.396000
32.968000 3.843000 464.536000
33.485000 3.841000 464.315000
34.026000 3.842000 464.417000
34.545000 3.840000 464.228000
35.089000 3.841000 464.369000
35.608000 3.840000 464.178000
36.146000 3.840000 464.243000
36.660000 3.838000 464.012000
37.205000 3.840000 464.161000
37.712000 3.837000 463.840000
38.277000 3.840000 464.233000
38.767000 3.836000 463.719000
39.336000 3.839000 464.143000
39.830000 3.836000 463.691000
40.407000 3.840000 464.207000
40.899000 3.836000 463.736000
41.469000 3.840000 464.165000
41.966000 3.836000 463.765000
42.521000 3.838000 464.011000
43.029000 3.836000 463.736000
43.577000 3.838000 463.904000
44.078000 3.835000 463.576000
44.623000 3.836000 463.700000
45.142000 3.835000 463.567000
45.690000 3.836000 463.726000
46.175000 3.832000 463.252000
46.734000 3.834000 463.519000
47.256000 3.833000 463.416000
47.796000 3.834000 463.493000
48.309000 3.833000 463.312000
48.888000 3.836000 463.756000
49.348000 3.831000 463.079000
49.943000 3.835000 463.658000
50.401000 3.830000 462.975000
51.002000 3.835000 463.608000
51.465000 3.830000 462.982000
52.060000 3.835000 463.548000
52.524000 3.830000 462.951000
53.087000 3.832000 463.224000
53.582000 3.829000 462.900000
54.137000 3.831000 463.100000
54.627000 3.828000 462.752000
55.184000 3.830000 462.967000
55.683000 3.828000 462.694000
56.239000 3.829000 462.899000
56.734000 3.827000 462.599000
57.298000 3.829000 462.865000
57.775000 3.825000 462.426000
58.352000 3.828000 462.794000
58.819000 3.824000 462.289000
59.407000 3.828000 462.734000
59.866000 3.823000 462.177000
60.452000 3.827000 462.600000
60.936000 3.824000 462.238000
61.508000 3.826000 462.547000
61.999000 3.824000 462.252000
62.543000 3.825000 462.349000
63.039000 3.823000 462.092000
107.725000 3.753000 453.637000
108.213000 3.751000 453.502000
108.730000 3.751000 453.486000
109.236000 3.751000 453.423000
109.717000 3.749000 453.259000
110.247000 3.750000 453.301000
-11.836000 4.375000 464.433000
-11.307000 4.377000 464.614000
-10.777000 4.378000 464.758000
-10.241000 4.378000 464.679000
-9.717000 4.381000 465.102000
-9.178000 4.379000 464.847000
-8.649000 4.382000 465.123000
-8.117000 4.383000 465.218000
-7.580000 4.381000 465.052000
-7.053000 4.386000 465.567000
-6.511000 4.380000 464.994000
-5.985000 4.386000 465.621000
-5.442000 4.380000 464.953000
-4.917000 4.388000 465.794000
-4.377000 4.382000 465.181000
-3.850000 4.390000 466.047000
-3.311000 4.386000 465.560000
-2.779000 4.389000 465.944000
-2.243000 4.388000 465.780000
-1.709000 4.391000 466.081000
-1.174000 4.388000 465.804000
-0.639000 4.388000 465.815000
-0.104000 4.388000 465.775000
0.431000 4.389000 465.870000
0.966000 4.388000 465.746000
1.501000 4.387000 465.720000
2.036000 4.390000 465.966000
2.570000 4.387000 465.688000
3.107000 4.391000 466.072000
3.641000 4.389000 465.882000
4.181000 4.394000 466.457000
4.710000 4.388000 465.761000
5.241000 4.385000 465.499000
5.777000 4.386000 465.558000
6.310000 4.385000 465.459000
6.850000 4.388000 465.845000
7.382000 4.387000 465.673000
7.911000 4.383000 465.305000
8.443000 4.382000 465.208000
8.972000 4.380000 464.930000
9.522000 4.387000 465.706000
10.047000 4.383000 465.271000
10.583000 4.384000 465.338000
11.108000 4.380000 464.942000
11.652000 4.384000 465.337000
12.185000 4.383000 465.287000
12.711000 4.380000 464.991000
13.257000 4.385000 465.424000
13.778000 4.380000 464.972000
14.311000 4.380000 464.947000
14.842000 4.379000 464.856000
15.392000 4.384000 465.328000
15.912000 4.380000 464.934000
16.457000 4.383000 465.228000
16.975000 4.379000 464.785000
17.503000 4.377000 464.652000
18.038000 4.377000 464.678000
18.566000 4.376000 464.529000
19.127000 4.383000 465.221000
19.627000 4.375000 464.398000
20.155000 4.374000 464.289000
20.697000 4.376000 464.482000
21.258000 4.381000 465.074000
21.765000 4.376000 464.499000
22.325000 4.381000 465.061000
22.830000 4.375000 464.465000
23.343000 4.372000 464.072000
23.864000 4.370000 463.842000
24.426000 4.375000 464.392000
24.953000 4.374000 464.277000
25.480000 4.373000 464.162000
25.999000 4.370000 463.922000
26.556000 4.374000 464.347000
27.084000 4.374000 464.255000
27.608000 4.372000 464.105000
28.137000 4.372000 464.043000
28.684000 4.374000 464.271000
29.191000 4.370000 463.856000
29.752000 4.374000 464.297000
30.258000 4.370000 463.876000
30.789000 4.370000 463.852000
31.327000 4.370000 463.930000
31.842000 4.368000 463.670000
32.392000 4.370000 463.925000
32.916000 4.369000 463.801000
33.445000 4.369000 463.747000
33.975000 4.368000 463.721000
34.494000 4.367000 463.533000
35.039000 4.368000 463.704000
35.555000 4.366000 463.498000
36.101000 4.368000 463.665000
36.610000 4.365000 463.376000
37.164000 4.368000 463.641000
37.660000 4.364000 463.203000
38.236000 4.369000 463.736000
38.723000 4.363000 463.185000
39.280000 4.366000 463.482000
39.784000 4.363000 463.156000
40.328000 4.364000 463.297000
40.847000 4.363000 463.154000
41.387000 4.364000 463.246000
41.909000 4.363000 463.127000
42.441000 4.363000 463.139000
42.956000 4.361000 462.954000
43.518000 4.364000 463.281000
43.986000 4.358000 462.606000
44.571000 4.363000 463.163000
45.024000 4.356000 462.353000
45.636000 4.363000 463.173000
46.082000 4.355000 462.312000
46.675000 4.361000 462.929000
47.169000 4.358000 462.565000
47.729000 4.360000 462.847000
48.240000 4.358000 462.651000
48.813000 4.362000 463.046000
49.284000 4.357000 462.475000
49.859000 4.361000 462.886000
50.345000 4.357000 462.468000
50.902000 4.359000 462.696000
51.408000 4.357000 462.472000
51.948000 4.357000 462.552000
52.466000 4.356000 462.438000
52.986000 4.356000 462.344000
53.504000 4.354000 462.227000
54.054000 4.356000 462.391000
54.563000 4.354000 462.205000
55.110000 4.356000 462.348000
55.615000 4.353000 462.130000
56.171000 4.355000 462.335000
56.659000 4.352000 461.991000
57.219000 4.354000 462.229000
57.706000 4.351000 461.877000
58.273000 4.354000 462.164000
58.762000 4.351000 461.837000
59.328000 4.353000 462.120000
59.817000 4.350000 461.798000
60.359000 4.351000 461.883000
60.874000 4.350000 461.767000
61.413000 4.351000 461.838000
61.923000 4.349000 461.682000
62.448000 4.349000 461.647000
62.975000 4.349000 461.620000
105.660000 4.274000 453.719000
106.058000 4.269000 453.195000
106.593000 4.270000 453.254000
107.016000 4.266000 452.843000
107.500000 4.265000 452.692000
107.975000 4.263000 452.504000
108.500000 4.263000 452.527000
108.991000 4.262000 452.407000
109.521000 4.262000 452.453000
110.025000 4.262000 452.387000
110.540000 4.262000 452.370000
111.093000 4.263000 452.506000
111.595000 4.262000 452.436000
112.140000 4.263000 452.535000
112.652000 4.263000 452.508000
-11.846000 4.913000 464.833000
-11.315000 4.914000 464.943000
-10.786000 4.916000 465.145000
-10.247000 4.914000 464.935000
-9.721000 4.918000 465.328000
-9.184000 4.916000 465.171000
-8.654000 4.919000 465.392000
-8.124000 4.921000 465.658000
-7.584000 4.918000 465.342000
-7.055000 4.922000 465.692000
-6.511000 4.915000 465.011000
-5.983000 4.920000 465.487000
-5.442000 4.914000 464.937000
-4.915000 4.920000 465.559000
-4.377000 4.916000 465.171000
-3.847000 4.922000 465.683000
-3.309000 4.917000 465.223000
-2.777000 4.921000 465.640000
-2.242000 4.920000 465.565000
-1.706000 4.917000 465.221000
-1.173000 4.919000 465.439000
-0.638000 4.914000 464.976000
-0.104000 4.920000 465.496000
0.431000 4.917000 465.275000
0.965000 4.917000 465.283000
1.498000 4.915000 465.074000
2.033000 4.917000 465.199000
2.567000 4.917000 465.203000
3.099000 4.913000 464.875000
3.637000 4.918000 465.337000
4.167000 4.913000 464.878000
4.705000 4.918000 465.338000
5.233000 4.912000 464.766000
5.769000 4.914000 464.959000
6.299000 4.911000 464.668000
6.836000 4.913000 464.863000
7.372000 4.915000 465.036000
7.901000 4.912000 464.723000
8.433000 4.911000 464.644000
8.959000 4.906000 464.244000
9.511000 4.916000 465.180000
10.035000 4.911000 464.687000
10.567000 4.911000 464.635000
11.097000 4.909000 464.478000
11.630000 4.909000 464.456000
12.168000 4.911000 464.661000
12.695000 4.908000 464.404000
13.227000 4.908000 464.383000
13.761000 4.908000 464.384000
14.284000 4.904000 464.047000
14.824000 4.907000 464.280000
15.369000 4.911000 464.635000
15.892000 4.907000 464.334000
16.427000 4.908000 464.391000
16.954000 4.906000 464.228000
17.475000 4.903000 463.894000
18.017000 4.905000 464.141000
18.544000 4.904000 463.993000
19.096000 4.909000 464.458000
19.611000 4.904000 464.027000
20.117000 4.898000 463.404000
20.671000 4.903000 463.887000
21.206000 4.903000 463.949000
21.740000 4.904000 463.973000
22.269000 4.903000 463.895000
22.802000 4.903000 463.901000
23.306000 4.897000 463.327000
23.824000 4.894000 463.068000
24.396000 4.902000 463.816000
24.914000 4.899000 463.551000
25.449000 4.900000 463.606000
25.957000 4.895000 463.176000
26.523000 4.902000 463.773000
27.039000 4.898000 463.485000
27.567000 4.898000 463.419000
28.092000 4.896000 463.288000
28.640000 4.899000 463.558000
29.148000 4.895000 463.163000
29.698000 4.898000 463.458000
30.211000 4.895000 463.162000
30.753000 4.897000 463.309000
31.285000 4.897000 463.315000
31.801000 4.894000 463.079000
32.319000 4.892000 462.885000
32.878000 4.896000 463.262000
33.378000 4.892000 462.828000
33.931000 4.895000 463.123000
34.439000 4.891000 462.793000
34.991000 4.894000 463.072000
35.506000 4.892000 462.858000
36.048000 4.893000 462.992000
36.561000 4.891000 462.750000
37.095000 4.891000 462.781000
37.612000 4.889000 462.614000
38.153000 4.890000 462.722000
38.687000 4.891000 462.755000
39.194000 4.888000 462.472000
39.740000 4.890000 462.641000
40.256000 4.888000 462.472000
40.793000 4.888000 462.537000
41.325000 4.889000 462.548000
41.839000 4.887000 462.362000
42.384000 4.888000 462.511000
42.889000 4.885000 462.230000
43.464000 4.890000 462.706000
43.925000 4.882000 461.967000
44.521000 4.890000 462.643000
44.975000 4.881000 461.853000
45.582000 4.889000 462.626000
46.034000 4.881000 461.837000
46.609000 4.886000 462.276000
47.099000 4.881000 461.875000
47.660000 4.885000 462.177000
48.155000 4.881000 461.829000
48.720000 4.884000 462.160000
49.194000 4.879000 461.633000
49.771000 4.883000 462.066000
50.247000 4.878000 461.561000
50.817000 4.882000 461.926000
51.298000 4.877000 461.485000
51.866000 4.881000 461.820000
52.331000 4.875000 461.246000
52.921000 4.880000 461.775000
53.377000 4.874000 461.132000
53.976000 4.880000 461.723000
54.449000 4.875000 461.243000
55.024000 4.879000 461.625000
55.511000 4.875000 461.265000
56.071000 4.878000 461.513000
56.561000 4.874000 461.192000
57.114000 4.876000 461.379000
57.621000 4.874000 461.197000
58.161000 4.875000 461.282000
58.690000 4.875000 461.273000
59.198000 4.873000 461.103000
59.750000 4.875000 461.277000
60.234000 4.871000 460.928000
60.799000 4.874000 461.197000
61.297000 4.872000 460.964000
61.832000 4.872000 461.004000
62.345000 4.871000 460.884000
62.889000 4.872000 460.993000
63.381000 4.869000 460.721000
104.479000 4.789000 453.117000
104.931000 4.786000 452.823000
105.391000 4.783000 452.562000
105.859000 4.781000 452.342000
106.334000 4.779000 452.152000
106.789000 4.776000 451.882000
107.299000 4.775000 451.845000
107.769000 4.773000 451.641000
108.262000 4.772000 451.535000
108.746000 4.771000 451.389000
109.286000 4.772000 451.478000
109.769000 4.770000 451.336000
110.311000 4.771000 451.430000
110.823000 4.771000 451.405000
111.358000 4.772000 451.472000
111.881000 4.772000 451.493000
112.425000 4.773000 451.595000
112.988000 4.775000 451.773000
-11.858000 5.452000 465.298000
-11.330000 5.455000 465.540000
-10.794000 5.454000 465.481000
-10.267000 5.458000 465.822000
-9.727000 5.455000 465.588000
-9.199000 5.459000 465.919000
-8.660000 5.457000 465.725000
-8.131000 5.461000 466.066000
-7.592000 5.458000 465.808000
-7.056000 5.457000 465.730000
-6.512000 5.450000 465.099000
-5.983000 5.454000 465.447000
-5.440000 5.446000 464.752000
-4.913000 5.453000 465.373000
-4.372000 5.445000 464.681000
-3.843000 5.450000 465.170000
-3.305000 5.444000 464.662000
-2.774000 5.450000 465.160000
-2.238000 5.446000 464.776000
-1.704000 5.443000 464.542000
-1.171000 5.446000 464.826000
-0.637000 5.443000 464.577000
-0.104000 5.449000 465.072000
0.430000 5.444000 464.608000
0.963000 5.441000 464.380000
1.496000 5.442000 464.457000
2.030000 5.441000 464.395000
2.564000 5.445000 464.667000
3.096000 5.441000 464.381000
3.629000 5.441000 464.406000
4.163000 5.441000 464.405000
4.698000 5.444000 464.623000
5.229000 5.441000 464.380000
5.755000 5.435000 463.847000
6.292000 5.438000 464.136000
6.822000 5.436000 463.919000
7.358000 5.439000 464.169000
7.893000 5.440000 464.250000
8.422000 5.437000 464.016000
8.950000 5.434000 463.772000
9.483000 5.434000 463.791000
10.023000 5.439000 464.159000
10.544000 5.432000 463.607000
11.087000 5.437000 464.058000
11.610000 5.433000 463.677000
12.147000 5.435000 463.865000
12.677000 5.434000 463.769000
13.204000 5.432000 463.563000
13.741000 5.433000 463.717000
14.260000 5.428000 463.293000
14.813000 5.436000 463.931000
15.331000 5.431000 463.495000
15.874000 5.434000 463.801000
16.392000 5.430000 463.400000
16.932000 5.432000 463.621000
17.444000 5.426000 463.079000
17.985000 5.429000 463.313000
18.518000 5.429000 463.347000
19.059000 5.432000 463.567000
19.587000 5.430000 463.453000
20.099000 5.425000 463.000000
20.611000 5.420000 462.554000
21.187000 5.431000 463.528000
21.697000 5.426000 463.049000
22.229000 5.426000 463.066000
22.755000 5.424000 462.945000
23.285000 5.424000 462.909000
23.798000 5.420000 462.547000
24.362000 5.427000 463.184000
24.883000 5.425000 462.971000
25.411000 5.424000 462.916000
25.923000 5.420000 462.564000
26.440000 5.417000 462.320000
27.008000 5.424000 462.944000
27.507000 5.418000 462.396000
28.052000 5.421000 462.641000
28.589000 5.422000 462.732000
29.101000 5.418000 462.426000
29.648000 5.421000 462.666000
30.163000 5.418000 462.418000
30.711000 5.421000 462.681000
31.223000 5.418000 462.393000
31.767000 5.420000 462.576000
32.259000 5.413000 462.019000
32.836000 5.421000 462.682000
33.324000 5.414000 462.077000
33.886000 5.419000 462.509000
34.390000 5.415000 462.139000
34.938000 5.418000 462.370000
35.450000 5.415000 462.127000
35.991000 5.416000 462.263000
36.504000 5.414000 462.037000
37.044000 5.415000 462.146000
37.546000 5.411000 461.796000
38.093000 5.413000 462.001000
38.630000 5.414000 462.081000
39.151000 5.413000 461.969000
39.667000 5.411000 461.797000
40.209000 5.412000 461.933000
40.716000 5.409000 461.671000
41.267000 5.412000 461.898000
41.777000 5.409000 461.676000
42.321000 5.411000 461.830000
42.834000 5.409000 461.634000
43.394000 5.413000 461.954000
43.867000 5.406000 461.358000
44.455000 5.413000 461.955000
44.929000 5.406000 461.374000
45.504000 5.411000 461.838000
45.987000 5.406000 461.361000
46.547000 5.409000 461.666000
47.040000 5.405000 461.300000
47.604000 5.409000 461.634000
48.084000 5.403000 461.155000
48.651000 5.407000 461.504000
49.126000 5.401000 460.992000
49.709000 5.407000 461.485000
50.172000 5.400000 460.875000
50.756000 5.406000 461.372000
51.222000 5.399000 460.802000
51.807000 5.405000 461.295000
52.272000 5.398000 460.726000
52.865000 5.405000 461.288000
53.327000 5.398000 460.698000
53.915000 5.404000 461.206000
54.378000 5.397000 460.642000
54.948000 5.401000 460.985000
55.430000 5.397000 460.590000
55.984000 5.399000 460.797000
56.477000 5.396000 460.503000
57.030000 5.398000 460.697000
57.533000 5.396000 460.493000
58.079000 5.397000 460.626000
58.584000 5.395000 460.439000
59.130000 5.397000 460.575000
59.621000 5.393000 460.280000
60.169000 5.395000 460.430000
60.646000 5.390000 460.037000
61.227000 5.395000 460.434000
61.720000 5.392000 460.170000
62.269000 5.394000 460.324000
62.778000 5.392000 460.176000
63.304000 5.392000 460.159000
103.838000 5.303000 452.592000
104.281000 5.299000 452.259000
104.736000 5.296000 451.979000
105.222000 5.294000 451.837000
105.634000 5.289000 451.380000
106.179000 5.290000 451.497000
106.600000 5.285000 451.084000
