63.437000 72.692000 395.159000
63.924000 72.730000 395.366000
64.342000 72.690000 395.145000
64.749000 72.637000 394.861000
65.209000 72.645000 394.903000
65.648000 72.629000 394.814000
66.111000 72.639000 394.869000
66.534000 72.607000 394.693000
67.020000 72.642000 394.886000
67.494000 72.664000 395.003000
67.963000 72.680000 395.095000
68.417000 72.681000 395.095000
68.914000 72.727000 395.346000
69.398000 72.758000 395.515000
69.867000 72.773000 395.599000
70.256000 72.706000 395.235000
70.683000 72.678000 395.080000
71.147000 72.689000 395.142000
71.713000 72.803000 395.759000
72.201000 72.837000 395.944000
72.632000 72.813000 395.814000
73.006000 72.733000 395.378000
73.415000 72.688000 395.135000
73.855000 72.675000 395.063000
74.367000 72.731000 395.372000
74.844000 72.754000 395.494000
75.339000 72.794000 395.710000
75.820000 72.819000 395.848000
76.265000 72.810000 395.797000
76.703000 72.794000 395.712000
77.135000 72.773000 395.599000
77.576000 72.761000 395.530000
78.055000 72.784000 395.656000
78.550000 72.822000 395.863000
79.030000 72.845000 395.988000
79.512000 72.870000 396.124000
79.957000 72.861000 396.078000
80.393000 72.845000 395.986000
80.786000 72.788000 395.680000
81.205000 72.757000 395.510000
81.650000 72.749000 395.467000
82.188000 72.823000 395.868000
82.688000 72.864000 396.090000
83.191000 72.905000 396.316000
83.558000 72.828000 395.898000
84.022000 72.837000 395.944000
84.489000 72.847000 396.002000
85.008000 72.903000 396.302000
85.441000 72.883000 396.198000
85.973000 72.949000 396.556000
86.397000 72.923000 396.411000
86.808000 72.886000 396.210000
87.220000 72.850000 396.016000
87.723000 72.890000 396.232000
88.179000 72.891000 396.237000
88.657000 72.910000 396.342000
89.129000 72.923000 396.415000
89.596000 72.933000 396.466000
90.047000 72.930000 396.449000
90.536000 72.957000 396.599000
90.991000 72.957000 396.597000
91.442000 72.953000 396.577000
91.953000 72.997000 396.817000
92.440000 73.022000 396.952000
92.851000 72.987000 396.761000
93.232000 72.928000 396.442000
93.700000 72.938000 396.495000
94.139000 72.925000 396.425000
94.691000 73.000000 396.833000
95.133000 72.990000 396.777000
95.576000 72.980000 396.725000
96.020000 72.971000 396.675000
96.510000 72.998000 396.820000
96.976000 73.006000 396.862000
97.492000 73.051000 397.107000
97.937000 73.042000 397.062000
98.400000 73.048000 397.091000
98.847000 73.041000 397.052000
99.330000 73.061000 397.162000
99.749000 73.034000 397.014000
100.220000 73.045000 397.074000
100.673000 73.043000 397.064000
101.192000 73.088000 397.310000
101.668000 73.102000 397.389000
102.105000 73.088000 397.312000
102.512000 73.053000 397.120000
102.983000 73.064000 397.181000
103.452000 73.073000 397.229000
103.987000 73.128000 397.529000
104.533000 73.191000 397.871000
104.975000 73.181000 397.815000
105.342000 73.119000 397.479000
105.750000 73.085000 397.296000
106.181000 73.068000 397.200000
106.666000 73.088000 397.308000
107.164000 73.116000 397.463000
107.691000 73.164000 397.725000
108.174000 73.182000 397.820000
108.615000 73.171000 397.762000
109.086000 73.181000 397.814000
109.582000 73.207000 397.956000
110.020000 73.194000 397.889000
110.461000 73.184000 397.831000
110.927000 73.190000 397.863000
111.396000 73.198000 397.908000
111.883000 73.218000 398.015000
112.318000 73.203000 397.938000
112.793000 73.215000 397.999000
113.290000 73.241000 398.141000
113.769000 73.255000 398.217000
114.261000 73.277000 398.339000
114.720000 73.278000 398.345000
115.157000 73.265000 398.273000
115.677000 73.305000 398.489000
116.194000 73.342000 398.693000
116.606000 73.313000 398.535000
116.995000 73.271000 398.303000
117.475000 73.285000 398.381000
118.019000 73.339000 398.674000
118.564000 73.393000 398.967000
119.244000 73.529000 399.710000
119.550000 73.435000 399.197000
119.907000 73.373000 398.862000
120.179000 73.260000 398.246000
120.689000 73.292000 398.420000
121.395000 73.443000 399.238000
121.732000 73.369000 398.837000
122.164000 73.353000 398.753000
122.700000 73.400000 399.006000
123.251000 73.456000 399.310000
123.747000 73.478000 399.429000
124.300000 73.534000 399.733000
124.814000 73.566000 399.910000
125.323000 73.595000 400.067000
125.857000 73.639000 400.305000
126.425000 73.702000 400.648000
126.906000 73.714000 400.714000
127.474000 73.777000 401.054000
127.940000 73.780000 401.072000
128.504000 73.839000 401.393000
128.989000 73.853000 401.471000
129.566000 73.919000 401.829000
130.058000 73.937000 401.923000
130.585000 73.974000 402.127000
131.120000 74.016000 402.352000
131.685000 74.073000 402.666000
132.213000 74.110000 402.865000
132.734000 74.142000 403.042000
133.235000 74.164000 403.159000
140.962000 74.578000 405.409000
141.277000 74.498000 404.978000
141.634000 74.442000 404.671000
141.972000 74.376000 404.309000
142.299000 74.304000 403.919000
142.635000 74.237000 403.559000
142.989000 74.181000 403.251000
143.297000 74.100000 402.814000
143.666000 74.052000 402.551000
144.012000 73.993000 402.228000
144.378000 73.944000 401.961000
144.734000 73.890000 401.668000
145.123000 73.853000 401.468000
145.441000 73.780000 401.074000
145.853000 73.756000 400.939000
146.196000 73.697000 400.619000
146.573000 73.655000 400.391000
146.981000 73.629000 400.252000
147.349000 73.583000 400.001000
147.755000 73.556000 399.856000
148.137000 73.519000 399.651000
148.533000 73.487000 399.480000
148.940000 73.462000 399.342000
149.323000 73.425000 399.139000
149.732000 73.401000 399.009000
150.154000 73.383000 398.913000
150.538000 73.347000 398.717000
150.974000 73.336000 398.658000
151.339000 73.291000 398.414000
151.756000 73.271000 398.307000
152.101000 73.217000 398.014000
152.534000 73.206000 397.950000
152.946000 73.185000 397.835000
153.410000 73.188000 397.852000
153.848000 73.179000 397.805000
154.284000 73.169000 397.752000
154.735000 73.166000 397.737000
155.182000 73.162000 397.711000
155.669000 73.176000 397.789000
156.086000 73.157000 397.687000
156.589000 73.179000 397.804000
157.032000 73.172000 397.769000
157.552000 73.202000 397.930000
157.966000 73.182000 397.823000
158.466000 73.202000 397.930000
158.920000 73.201000 397.923000
159.438000 73.229000 398.076000
159.905000 73.233000 398.099000
160.418000 73.259000 398.239000
160.898000 73.269000 398.294000
161.415000 73.296000 398.442000
161.936000 73.325000 398.599000
162.457000 73.354000 398.754000
163.041000 73.410000 399.063000
163.504000 73.413000 399.075000
164.102000 73.475000 399.414000
164.590000 73.488000 399.485000
165.264000 73.584000 400.007000
165.838000 73.635000 400.284000
166.465000 73.709000 400.686000
166.983000 73.735000 400.826000
167.693000 73.844000 401.422000
168.322000 73.918000 401.823000
169.015000 74.020000 402.375000
-5.053000 72.767000 393.112000
-4.596000 72.673000 392.601000
-4.141000 72.601000 392.213000
-3.687000 72.539000 391.877000
-3.234000 72.472000 391.517000
-2.782000 72.415000 391.210000
-2.332000 72.362000 390.921000
-1.881000 72.316000 390.676000
-1.432000 72.256000 390.351000
-0.983000 72.210000 390.104000
-0.535000 72.179000 389.937000
-0.087000 72.135000 389.698000
0.360000 72.095000 389.480000
0.807000 72.074000 389.366000
1.254000 72.031000 389.136000
1.700000 72.013000 389.039000
2.146000 71.976000 388.836000
2.592000 71.962000 388.761000
3.037000 71.937000 388.628000
3.483000 71.924000 388.557000
3.927000 71.888000 388.363000
4.374000 71.898000 388.419000
4.818000 71.874000 388.285000
5.264000 71.871000 388.269000
5.707000 71.842000 388.116000
6.154000 71.851000 388.165000
6.599000 71.853000 388.173000
7.045000 71.854000 388.181000
7.492000 71.860000 388.210000
7.937000 71.860000 388.211000
8.384000 71.864000 388.233000
8.831000 71.873000 388.283000
9.277000 71.877000 388.305000
9.726000 71.905000 388.453000
10.173000 71.908000 388.472000
10.622000 71.928000 388.581000
11.071000 71.944000 388.664000
11.519000 71.959000 388.746000
11.972000 71.994000 388.933000
12.424000 72.025000 389.104000
12.874000 72.046000 389.218000
13.328000 72.086000 389.431000
13.781000 72.116000 389.596000
14.236000 72.154000 389.802000
14.694000 72.203000 390.067000
15.151000 72.246000 390.296000
15.610000 72.296000 390.566000
16.069000 72.344000 390.828000
16.532000 72.406000 391.162000
16.999000 72.483000 391.575000
17.462000 72.538000 391.875000
17.928000 72.603000 392.227000
18.397000 72.678000 392.631000
18.872000 72.771000 393.135000
19.353000 72.883000 393.738000
19.828000 72.965000 394.181000
20.312000 73.080000 394.803000
20.799000 73.199000 395.444000
30.075000 73.674000 398.012000
30.521000 73.648000 397.871000
30.963000 73.613000 397.681000
31.407000 73.582000 397.513000
31.848000 73.546000 397.320000
32.297000 73.530000 397.235000
32.737000 73.494000 397.038000
33.183000 73.471000 396.917000
33.619000 73.430000 396.693000
34.069000 73.418000 396.627000
34.515000 73.396000 396.512000
34.954000 73.363000 396.330000
35.399000 73.342000 396.218000
35.841000 73.316000 396.079000
36.279000 73.283000 395.896000
36.726000 73.266000 395.806000
37.160000 73.227000 395.594000
37.609000 73.216000 395.539000
38.045000 73.181000 395.347000
38.487000 73.158000 395.221000
38.924000 73.126000 395.052000
39.367000 73.107000 394.950000
39.803000 73.075000 394.773000
40.254000 73.071000 394.753000
40.684000 73.028000 394.521000
41.131000 73.018000 394.467000
41.560000 72.976000 394.242000
42.004000 72.961000 394.157000
42.422000 72.902000 393.840000
42.927000 72.992000 394.325000
43.412000 73.045000 394.615000
43.881000 73.071000 394.755000
44.313000 73.038000 394.573000
44.730000 72.979000 394.255000
45.130000 72.892000 393.787000
45.587000 72.901000 393.836000
46.048000 72.915000 393.908000
46.521000 72.948000 394.087000
46.969000 72.940000 394.043000
47.425000 72.946000 394.078000
47.867000 72.930000 393.991000
48.341000 72.961000 394.161000
48.779000 72.941000 394.049000
49.260000 72.982000 394.272000
49.684000 72.940000 394.048000
50.162000 72.978000 394.250000
50.596000 72.950000 394.102000
51.052000 72.956000 394.130000
51.511000 72.965000 394.179000
51.959000 72.957000 394.140000
52.396000 72.936000 394.026000
52.845000 72.932000 394.002000
53.295000 72.928000 393.979000
53.760000 72.945000 394.075000
54.230000 72.969000 394.202000
54.700000 72.992000 394.325000
55.182000 73.031000 394.536000
55.644000 73.042000 394.599000
56.091000 73.035000 394.559000
56.530000 73.016000 394.456000
56.951000 72.975000 394.236000
57.379000 72.944000 394.068000
57.844000 72.960000 394.153000
58.324000 72.995000 394.341000
58.770000 72.985000 394.291000
59.186000 72.940000 394.048000
59.639000 72.941000 394.049000
60.169000 73.035000 394.559000
60.664000 73.086000 394.835000
61.134000 73.105000 394.938000
61.571000 73.085000 394.831000
61.990000 73.046000 394.617000
62.425000 73.024000 394.502000
62.869000 73.014000 394.447000
63.375000 73.075000 394.774000
63.847000 73.096000 394.887000
64.309000 73.106000 394.941000
64.732000 73.072000 394.759000
65.194000 73.081000 394.807000
65.651000 73.086000 394.834000
66.089000 73.069000 394.742000
66.496000 73.018000 394.468000
66.988000 73.060000 394.695000
67.473000 73.095000 394.881000
67.946000 73.116000 394.994000
68.390000 73.105000 394.938000
68.888000 73.153000 395.198000
69.351000 73.163000 395.251000
69.802000 73.160000 395.233000
70.208000 73.109000 394.961000
70.644000 73.091000 394.864000
71.140000 73.136000 395.104000
71.667000 73.210000 395.507000
72.130000 73.219000 395.554000
72.562000 73.196000 395.431000
72.952000 73.133000 395.086000
73.371000 73.098000 394.901000
73.828000 73.102000 394.919000
74.339000 73.159000 395.226000
74.848000 73.213000 395.518000
75.328000 73.237000 395.651000
75.770000 73.226000 395.590000
76.184000 73.186000 395.377000
76.645000 73.194000 395.417000
77.113000 73.206000 395.485000
77.570000 73.209000 395.499000
78.030000 73.215000 395.533000
78.509000 73.238000 395.658000
78.995000 73.268000 395.816000
79.450000 73.268000 395.816000
79.897000 73.261000 395.781000
80.355000 73.265000 395.799000
80.742000 73.203000 395.468000
81.158000 73.169000 395.282000
81.630000 73.185000 395.368000
82.161000 73.253000 395.739000
82.662000 73.295000 395.963000
83.107000 73.286000 395.917000
83.520000 73.250000 395.720000
83.978000 73.253000 395.738000
84.438000 73.258000 395.761000
84.989000 73.342000 396.216000
85.428000 73.328000 396.141000
85.912000 73.352000 396.272000
86.330000 73.321000 396.102000
86.754000 73.295000 395.965000
87.203000 73.290000 395.938000
87.745000 73.363000 396.330000
88.190000 73.355000 396.289000
88.615000 73.330000 396.151000
89.083000 73.341000 396.212000
89.540000 73.342000 396.219000
89.984000 73.333000 396.171000
90.471000 73.359000 396.311000
90.943000 73.374000 396.388000
91.427000 73.396000 396.510000
91.974000 73.469000 396.906000
92.419000 73.461000 396.861000
92.816000 73.415000 396.610000
93.238000 73.389000 396.469000
93.645000 73.350000 396.263000
94.111000 73.359000 396.308000
94.662000 73.433000 396.711000
95.077000 73.402000 396.541000
95.539000 73.408000 396.572000
95.970000 73.388000 396.468000
96.475000 73.426000 396.673000
96.944000 73.437000 396.729000
97.456000 73.479000 396.958000
97.893000 73.465000 396.882000
98.364000 73.476000 396.943000
98.797000 73.460000 396.855000
99.290000 73.487000 397.003000
99.718000 73.466000 396.889000
100.191000 73.480000 396.961000
100.660000 73.489000 397.012000
101.142000 73.508000 397.114000
101.611000 73.517000 397.165000
102.047000 73.503000 397.087000
102.475000 73.483000 396.979000
102.952000 73.498000 397.060000
103.450000 73.528000 397.223000
103.907000 73.528000 397.225000
104.411000 73.562000 397.409000
104.916000 73.597000 397.593000
105.352000 73.582000 397.515000
105.703000 73.509000 397.120000
106.153000 73.504000 397.094000
113.280000 73.691000 398.105000
113.771000 73.713000 398.223000
114.246000 73.725000 398.288000
114.716000 73.733000 398.329000
115.151000 73.719000 398.253000
115.637000 73.737000 398.353000
116.146000 73.770000 398.527000
116.565000 73.745000 398.396000
117.029000 73.750000 398.420000
117.420000 73.708000 398.194000
117.970000 73.766000 398.507000
118.553000 73.844000 398.930000
119.220000 73.973000 399.628000
119.593000 73.920000 399.342000
119.951000 73.858000 399.006000
120.214000 73.739000 398.361000
120.569000 73.676000 398.024000
121.223000 73.796000 398.672000
121.679000 73.795000 398.666000
122.065000 73.752000 398.431000
122.653000 73.830000 398.855000
123.210000 73.890000 399.176000
123.705000 73.911000 399.293000
124.270000 73.975000 399.638000
124.766000 73.997000 399.754000
125.286000 74.033000 399.952000
125.825000 74.080000 400.203000
126.379000 74.135000 400.503000
126.867000 74.152000 400.592000
127.430000 74.212000 400.915000
127.909000 74.223000 400.975000
128.472000 74.282000 401.295000
128.952000 74.293000 401.354000
129.537000 74.364000 401.740000
130.029000 74.381000 401.833000
130.551000 74.416000 402.022000
131.088000 74.459000 402.251000
131.644000 74.513000 402.541000
132.185000 74.556000 402.779000
132.710000 74.592000 402.970000
133.207000 74.611000 403.073000
140.976000 75.051000 405.450000
141.296000 74.974000 405.034000
141.642000 74.911000 404.693000
141.974000 74.841000 404.314000
142.297000 74.766000 403.913000
142.634000 74.700000 403.556000
142.993000 74.646000 403.260000
143.298000 74.563000 402.815000
143.665000 74.514000 402.549000
144.011000 74.454000 402.226000
144.383000 74.407000 401.973000
144.739000 74.354000 401.682000
145.120000 74.312000 401.459000
145.441000 74.241000 401.074000
145.853000 74.216000 400.941000
146.195000 74.156000 400.615000
146.565000 74.111000 400.371000
146.970000 74.083000 400.222000
147.334000 74.035000 399.962000
147.741000 74.009000 399.819000
148.130000 73.974000 399.630000
148.520000 73.939000 399.445000
148.920000 73.910000 399.288000
149.313000 73.878000 399.112000
149.711000 73.848000 398.953000
150.138000 73.833000 398.870000
150.508000 73.790000 398.636000
150.971000 73.792000 398.650000
151.303000 73.731000 398.320000
151.764000 73.733000 398.328000
152.114000 73.681000 398.049000
152.564000 73.677000 398.030000
152.962000 73.649000 397.876000
153.406000 73.643000 397.843000
153.844000 73.634000 397.795000
154.287000 73.627000 397.759000
154.732000 73.622000 397.729000
155.169000 73.612000 397.678000
155.658000 73.627000 397.759000
156.099000 73.620000 397.719000
156.577000 73.630000 397.775000
156.999000 73.614000 397.687000
157.517000 73.643000 397.841000
157.924000 73.619000 397.716000
158.455000 73.654000 397.903000
158.905000 73.651000 397.886000
159.422000 73.678000 398.035000
159.893000 73.685000 398.070000
160.413000 73.714000 398.226000
160.880000 73.718000 398.249000
161.409000 73.751000 398.427000
161.929000 73.780000 398.582000
162.439000 73.803000 398.710000
163.022000 73.860000 399.016000
163.496000 73.867000 399.054000
164.097000 73.931000 399.402000
164.601000 73.952000 399.512000
165.262000 74.043000 400.003000
165.807000 74.081000 400.207000
166.441000 74.158000 400.629000
166.977000 74.192000 400.811000
167.674000 74.297000 401.378000
168.292000 74.367000 401.753000
169.001000 74.476000 402.342000
169.703000 74.581000 402.913000
-4.591000 73.049000 392.200000
-4.136000 72.977000 391.817000
-3.683000 72.912000 391.465000
-3.231000 72.850000 391.135000
-2.780000 72.793000 390.827000
-2.329000 72.735000 390.517000
-1.879000 72.688000 390.265000
-1.430000 72.638000 389.993000
-0.982000 72.586000 389.715000
-0.534000 72.560000 389.579000
-0.087000 72.528000 389.404000
0.360000 72.475000 389.121000
0.807000 72.457000 389.025000
1.253000 72.412000 388.781000
1.699000 72.400000 388.715000
2.144000 72.363000 388.520000
2.590000 72.351000 388.456000
3.035000 72.322000 388.300000
3.480000 72.315000 388.262000
3.923000 72.261000 387.972000
4.370000 72.279000 388.068000
4.813000 72.247000 387.894000
5.259000 72.259000 387.961000
5.704000 72.243000 387.872000
6.150000 72.251000 387.917000
6.594000 72.237000 387.843000
7.040000 72.244000 387.880000
7.486000 72.249000 387.904000
7.931000 72.252000 387.920000
8.377000 72.250000 387.913000
8.824000 72.267000 388.002000
9.270000 72.271000 388.024000
9.719000 72.296000 388.156000
10.164000 72.290000 388.125000
10.614000 72.317000 388.269000
11.061000 72.326000 388.321000
11.512000 72.357000 388.488000
11.961000 72.374000 388.578000
12.411000 72.400000 388.718000
12.862000 72.425000 388.849000
13.316000 72.467000 389.076000
13.769000 72.501000 389.260000
14.224000 72.541000 389.475000
14.680000 72.583000 389.702000
15.137000 72.630000 389.951000
15.595000 72.675000 390.193000
16.053000 72.720000 390.438000
16.518000 72.794000 390.831000
16.979000 72.847000 391.119000
17.444000 72.914000 391.475000
17.909000 72.978000 391.822000
18.380000 73.059000 392.254000
18.851000 73.139000 392.686000
19.331000 73.249000 393.276000
19.800000 73.316000 393.635000
20.289000 73.449000 394.348000
20.771000 73.554000 394.913000
29.611000 74.114000 397.920000
30.046000 74.060000 397.629000
30.490000 74.030000 397.469000
30.935000 74.001000 397.315000
31.379000 73.972000 397.159000
31.819000 73.936000 396.962000
32.269000 73.924000 396.898000
32.708000 73.886000 396.695000
33.155000 73.866000 396.590000
33.590000 73.822000 396.353000
34.038000 73.806000 396.268000
34.485000 73.788000 396.169000
34.930000 73.768000 396.061000
35.367000 73.730000 395.857000
35.814000 73.716000 395.781000
36.248000 73.673000 395.550000
36.700000 73.669000 395.533000
37.135000 73.630000 395.322000
37.582000 73.617000 395.253000
38.016000 73.579000 395.048000
38.461000 73.562000 394.955000
38.895000 73.525000 394.757000
39.343000 73.516000 394.709000
39.775000 73.476000 394.495000
40.229000 73.478000 394.504000
40.659000 73.437000 394.286000
41.102000 73.420000 394.194000
41.534000 73.382000 393.990000
41.974000 73.361000 393.875000
42.400000 73.316000 393.634000
42.877000 73.358000 393.859000
43.374000 73.434000 394.270000
43.841000 73.458000 394.397000
44.263000 73.407000 394.123000
44.705000 73.389000 394.027000
45.091000 73.281000 393.449000
45.560000 73.310000 393.601000
46.017000 73.317000 393.641000
46.477000 73.330000 393.711000
46.924000 73.323000 393.672000
47.378000 73.325000 393.684000
47.819000 73.307000 393.589000
48.270000 73.307000 393.585000
48.735000 73.326000 393.691000
49.203000 73.350000 393.819000
49.673000 73.376000 393.956000
50.139000 73.396000 394.066000
50.577000 73.375000 393.951000
51.027000 73.372000 393.934000
51.484000 73.378000 393.968000
51.933000 73.374000 393.948000
52.381000 73.367000 393.910000
52.835000 73.370000 393.927000
53.279000 73.359000 393.865000
53.720000 73.343000 393.781000
54.196000 73.376000 393.956000
54.668000 73.402000 394.097000
55.152000 73.444000 394.321000
55.610000 73.451000 394.361000
56.040000 73.421000 394.198000
56.462000 73.381000 393.983000
56.882000 73.339000 393.759000
57.312000 73.311000 393.608000
57.807000 73.366000 393.901000
58.292000 73.406000 394.121000
58.725000 73.383000 393.993000
59.149000 73.347000 393.800000
59.631000 73.384000 394.000000
60.179000 73.500000 394.622000
60.663000 73.538000 394.827000
61.120000 73.542000 394.848000
61.535000 73.496000 394.600000
61.946000 73.447000 394.337000
62.369000 73.411000 394.145000
62.814000 73.402000 394.098000
63.307000 73.449000 394.348000
63.785000 73.478000 394.507000
64.281000 73.527000 394.769000
64.719000 73.510000 394.677000
65.168000 73.506000 394.653000
65.608000 73.491000 394.573000
66.070000 73.501000 394.629000
66.485000 73.459000 394.402000
67.003000 73.530000 394.783000
67.462000 73.537000 394.820000
67.946000 73.569000 394.994000
68.374000 73.541000 394.846000
68.830000 73.545000 394.864000
69.267000 73.527000 394.770000
69.725000 73.532000 394.794000
70.166000 73.519000 394.727000
70.640000 73.541000 394.844000
71.110000 73.558000 394.935000
71.562000 73.557000 394.928000
72.002000 73.542000 394.851000
72.486000 73.573000 395.017000
72.931000 73.565000 394.971000
73.374000 73.554000 394.915000
73.846000 73.573000 395.014000
74.330000 73.603000 395.176000
74.790000 73.610000 395.212000
75.269000 73.634000 395.344000
75.710000 73.622000 395.277000
76.138000 73.596000 395.141000
76.610000 73.614000 395.234000
77.076000 73.626000 395.299000
77.567000 73.660000 395.485000
78.008000 73.648000 395.417000
78.490000 73.675000 395.561000
78.935000 73.666000 395.516000
79.390000 73.667000 395.519000
79.806000 73.632000 395.331000
80.327000 73.693000 395.658000
80.715000 73.632000 395.334000
81.157000 73.622000 395.278000
81.623000 73.632000 395.335000
82.145000 73.693000 395.661000
82.640000 73.730000 395.856000
83.068000 73.706000 395.732000
83.477000 73.666000 395.517000
83.975000 73.705000 395.724000
84.422000 73.699000 395.690000
84.975000 73.784000 396.150000
85.395000 73.754000 395.986000
85.833000 73.740000 395.911000
86.273000 73.727000 395.844000
86.724000 73.724000 395.826000
87.217000 73.756000 396.000000
87.747000 73.820000 396.342000
88.159000 73.784000 396.149000
88.582000 73.757000 396.005000
89.033000 73.754000 395.987000
89.492000 73.758000 396.008000
89.943000 73.755000 395.992000
90.420000 73.773000 396.088000
90.889000 73.785000 396.151000
91.366000 73.802000 396.245000
91.891000 73.858000 396.547000
92.344000 73.857000 396.539000
92.761000 73.826000 396.373000
93.170000 73.790000 396.180000
93.631000 73.795000 396.205000
94.146000 73.842000 396.458000
94.642000 73.873000 396.628000
95.040000 73.829000 396.389000
95.481000 73.818000 396.331000
95.940000 73.820000 396.344000
96.439000 73.855000 396.527000
96.890000 73.851000 396.510000
97.369000 73.869000 396.606000
97.810000 73.859000 396.548000
98.303000 73.886000 396.698000
98.758000 73.886000 396.698000
99.257000 73.919000 396.870000
99.687000 73.900000 396.769000
100.157000 73.910000 396.825000
100.637000 73.928000 396.923000
101.111000 73.941000 396.993000
101.569000 73.943000 397.001000
102.011000 73.933000 396.946000
102.439000 73.913000 396.839000
102.925000 73.934000 396.955000
103.408000 73.954000 397.059000
103.886000 73.970000 397.147000
104.298000 73.938000 396.976000
104.835000 73.996000 397.285000
105.248000 73.966000 397.123000
105.638000 73.919000 396.873000
106.099000 73.923000 396.895000
113.238000 74.121000 397.958000
113.759000 74.163000 398.181000
114.244000 74.181000 398.279000
114.695000 74.177000 398.257000
115.137000 74.167000 398.203000
115.604000 74.173000 398.239000
116.105000 74.201000 398.389000
116.506000 74.165000 398.195000
117.031000 74.208000 398.424000
119.914000 74.294000 398.885000
120.174000 74.171000 398.227000
120.450000 74.060000 397.631000
121.097000 74.176000 398.255000
121.696000 74.263000 398.721000
122.140000 74.255000 398.675000
122.635000 74.278000 398.798000
123.154000 74.314000 398.996000
123.667000 74.347000 399.173000
124.241000 74.417000 399.545000
124.735000 74.438000 399.657000
125.263000 74.478000 399.876000
125.797000 74.523000 400.116000
126.336000 74.570000 400.368000
126.837000 74.594000 400.499000
127.394000 74.651000 400.804000
127.875000 74.663000 400.869000
128.451000 74.730000 401.228000
128.932000 74.742000 401.294000
129.513000 74.812000 401.665000
130.007000 74.830000 401.766000
130.529000 74.865000 401.953000
131.064000 74.908000 402.180000
131.613000 74.957000 402.446000
132.149000 74.999000 402.670000
132.673000 75.034000 402.859000
133.185000 75.061000 403.007000
140.973000 75.515000 405.440000
141.301000 75.441000 405.047000
141.646000 75.378000 404.704000
141.973000 75.305000 404.314000
142.292000 75.228000 403.899000
142.634000 75.164000 403.556000
142.994000 75.109000 403.265000
143.308000 75.031000 402.844000
143.677000 74.982000 402.581000
144.012000 74.916000 402.226000
144.379000 74.867000 401.962000
144.728000 74.809000 401.651000
145.121000 74.774000 401.462000
145.450000 74.706000 401.097000
145.861000 74.681000 400.963000
146.198000 74.618000 400.624000
146.573000 74.574000 400.392000
146.971000 74.543000 400.223000
147.328000 74.491000 399.946000
147.722000 74.458000 399.768000
148.112000 74.424000 399.583000
148.509000 74.393000 399.415000
148.908000 74.363000 399.257000
149.308000 74.333000 399.098000
149.706000 74.304000 398.939000
150.120000 74.282000 398.822000
150.506000 74.247000 398.632000
150.956000 74.243000 398.610000
151.306000 74.190000 398.326000
151.754000 74.185000 398.302000
152.132000 74.146000 398.094000
152.576000 74.140000 398.059000
152.975000 74.112000 397.908000
153.422000 74.107000 397.885000
153.852000 74.094000 397.814000
154.298000 74.089000 397.787000
154.745000 74.084000 397.761000
155.172000 74.070000 397.686000
155.654000 74.082000 397.751000
156.094000 74.074000 397.706000
156.566000 74.082000 397.747000
156.981000 74.062000 397.639000
157.505000 74.094000 397.811000
157.919000 74.074000 397.703000
158.456000 74.111000 397.904000
158.908000 74.109000 397.892000
159.416000 74.133000 398.019000
159.881000 74.136000 398.040000
160.397000 74.164000 398.186000
160.873000 74.172000 398.233000
161.404000 74.206000 398.414000
161.908000 74.227000 398.529000
162.428000 74.256000 398.683000
163.000000 74.308000 398.963000
163.486000 74.321000 399.031000
164.083000 74.384000 399.368000
164.601000 74.411000 399.513000
165.260000 74.501000 399.996000
165.781000 74.529000 400.146000
166.411000 74.605000 400.555000
166.996000 74.661000 400.856000
167.677000 74.759000 401.384000
168.286000 74.825000 401.739000
168.985000 74.931000 402.304000
-4.587000 73.439000 391.877000
-4.133000 73.356000 391.439000
-3.680000 73.289000 391.080000
-3.228000 73.241000 390.822000
-2.778000 73.185000 390.524000
-2.327000 73.122000 390.191000
-1.878000 73.070000 389.910000
-1.429000 73.027000 389.681000
-0.981000 72.982000 389.442000
-0.534000 72.942000 389.230000
-0.087000 72.927000 389.145000
0.360000 72.867000 388.830000
0.806000 72.848000 388.728000
1.252000 72.804000 388.492000
1.697000 72.786000 388.398000
2.142000 72.753000 388.221000
2.588000 72.746000 388.180000
3.032000 72.706000 387.966000
3.477000 72.698000 387.925000
3.920000 72.658000 387.713000
4.366000 72.668000 387.766000
4.810000 72.645000 387.642000
5.256000 72.655000 387.698000
5.699000 72.628000 387.552000
6.145000 72.638000 387.604000
6.589000 72.627000 387.545000
7.035000 72.637000 387.601000
7.478000 72.621000 387.515000
7.925000 72.638000 387.603000
8.370000 72.638000 387.603000
8.817000 72.656000 387.700000
9.262000 72.653000 387.684000
9.712000 72.685000 387.854000
10.156000 72.681000 387.833000
10.605000 72.705000 387.965000
11.051000 72.708000 387.977000
11.504000 72.752000 388.215000
11.950000 72.754000 388.225000
12.402000 72.793000 388.433000
12.852000 72.814000 388.546000
13.306000 72.857000 388.776000
13.757000 72.882000 388.908000
14.213000 72.932000 389.175000
14.669000 72.977000 389.414000
15.124000 73.013000 389.607000
15.580000 73.054000 389.825000
16.037000 73.099000 390.064000
16.502000 73.173000 390.460000
16.961000 73.220000 390.711000
17.427000 73.292000 391.094000
17.890000 73.350000 391.407000
18.363000 73.443000 391.900000
18.831000 73.512000 392.271000
19.305000 73.602000 392.751000
19.781000 73.698000 393.261000
20.264000 73.811000 393.866000
20.743000 73.905000 394.365000
28.684000 74.536000 397.734000
29.126000 74.500000 397.543000
29.572000 74.473000 397.400000
30.017000 74.444000 397.244000
30.460000 74.412000 397.074000
30.904000 74.383000 396.916000
31.352000 74.365000 396.820000
31.791000 74.327000 396.619000
32.239000 74.308000 396.519000
32.677000 74.271000 396.318000
33.122000 74.246000 396.188000
33.563000 74.217000 396.033000
34.011000 74.202000 395.951000
34.453000 74.175000 395.808000
34.900000 74.159000 395.720000
35.333000 74.115000 395.486000
35.783000 74.106000 395.440000
36.216000 74.062000 395.203000
36.666000 74.053000 395.159000
37.106000 74.028000 395.022000
37.552000 74.013000 394.942000
37.990000 73.983000 394.782000
38.437000 73.969000 394.710000
38.868000 73.927000 394.483000
39.320000 73.925000 394.472000
39.751000 73.884000 394.256000
40.202000 73.881000 394.238000
40.634000 73.843000 394.037000
41.072000 73.817000 393.898000
41.505000 73.784000 393.721000
41.946000 73.765000 393.617000
42.379000 73.731000 393.436000
42.828000 73.726000 393.409000
43.339000 73.827000 393.951000
43.811000 73.861000 394.130000
44.233000 73.809000 393.854000
44.682000 73.804000 393.826000
45.071000 73.701000 393.278000
45.519000 73.695000 393.248000
45.996000 73.736000 393.465000
46.451000 73.741000 393.489000
46.895000 73.728000 393.424000
47.330000 73.702000 393.283000
47.764000 73.675000 393.138000
48.218000 73.678000 393.158000
48.697000 73.721000 393.385000
49.187000 73.779000 393.693000
49.667000 73.819000 393.909000
50.108000 73.803000 393.825000
50.539000 73.773000 393.659000
50.962000 73.730000 393.433000
51.421000 73.741000 393.492000
51.900000 73.780000 393.697000
52.369000 73.803000 393.822000
52.830000 73.816000 393.889000
53.272000 73.802000 393.814000
53.719000 73.794000 393.776000
54.182000 73.809000 393.853000
54.651000 73.832000 393.975000
55.129000 73.865000 394.153000
55.573000 73.855000 394.097000
55.995000 73.814000 393.882000
56.412000 73.768000 393.634000
56.810000 73.698000 393.264000
57.251000 73.685000 393.191000
57.772000 73.773000 393.660000
58.272000 73.833000 393.984000
58.710000 73.816000 393.893000
59.152000 73.803000 393.820000
59.665000 73.878000 394.220000
60.194000 73.972000 394.724000
60.646000 73.971000 394.716000
61.057000 73.919000 394.442000
61.455000 73.853000 394.091000
61.869000 73.807000 393.843000
62.317000 73.802000 393.816000
62.773000 73.807000 393.844000
63.272000 73.862000 394.136000
63.756000 73.898000 394.329000
64.254000 73.950000 394.606000
64.683000 73.922000 394.456000
65.126000 73.911000 394.397000
65.554000 73.883000 394.249000
66.052000 73.933000 394.518000
66.499000 73.926000 394.480000
67.005000 73.985000 394.793000
67.456000 73.983000 394.784000
67.917000 73.991000 394.825000
68.348000 73.967000 394.696000
68.795000 73.960000 394.662000
69.250000 73.962000 394.670000
69.695000 73.953000 394.624000
70.160000 73.966000 394.694000
70.587000 73.939000 394.548000
71.018000 73.916000 394.424000
71.455000 73.900000 394.338000
71.953000 73.946000 394.583000
72.446000 73.987000 394.804000
72.898000 73.985000 394.795000
73.381000 74.015000 394.951000
73.848000 74.029000 395.027000
74.321000 74.048000 395.128000
74.762000 74.036000 395.064000
75.207000 74.026000 395.014000
75.664000 74.030000 395.036000
76.135000 74.047000 395.124000
76.611000 74.069000 395.242000
77.037000 74.042000 395.097000
77.512000 74.062000 395.207000
77.977000 74.073000 395.262000
78.458000 74.098000 395.398000
78.897000 74.085000 395.324000
79.322000 74.057000 395.178000
79.745000 74.029000 395.030000
80.238000 74.065000 395.220000
80.698000 74.071000 395.254000
81.160000 74.078000 395.290000
81.603000 74.068000 395.238000
82.119000 74.125000 395.538000
82.568000 74.120000 395.511000
83.005000 74.105000 395.431000
83.459000 74.105000 395.432000
83.952000 74.139000 395.615000
84.401000 74.134000 395.588000
84.922000 74.192000 395.900000
85.338000 74.159000 395.724000
85.759000 74.131000 395.570000
86.238000 74.152000 395.683000
86.702000 74.160000 395.725000
87.193000 74.191000 395.891000
87.705000 74.239000 396.151000
88.135000 74.219000 396.042000
88.553000 74.188000 395.876000
88.985000 74.169000 395.776000
89.443000 74.172000 395.789000
89.889000 74.165000 395.754000
90.378000 74.194000 395.906000
90.848000 74.206000 395.973000
91.310000 74.212000 396.004000
91.814000 74.252000 396.217000
92.265000 74.248000 396.199000
92.704000 74.236000 396.132000
93.138000 74.219000 396.044000
93.633000 74.251000 396.212000
94.109000 74.267000 396.299000
94.643000 74.330000 396.632000
95.046000 74.289000 396.415000
95.434000 74.237000 396.136000
95.902000 74.246000 396.188000
96.411000 74.288000 396.412000
96.845000 74.272000 396.322000
97.333000 74.297000 396.458000
97.761000 74.276000 396.346000
98.269000 74.317000 396.563000
98.713000 74.307000 396.514000
99.220000 74.347000 396.723000
99.659000 74.334000 396.657000
100.133000 74.348000 396.729000
100.606000 74.361000 396.798000
101.093000 74.384000 396.922000
101.532000 74.372000 396.857000
101.970000 74.358000 396.786000
102.401000 74.341000 396.691000
102.865000 74.347000 396.724000
103.382000 74.391000 396.962000
103.828000 74.384000 396.924000
104.264000 74.370000 396.850000
104.743000 74.387000 396.937000
105.214000 74.397000 396.993000
105.609000 74.354000 396.765000
106.069000 74.358000 396.781000
113.196000 74.550000 397.811000
113.738000 74.606000 398.108000
114.259000 74.648000 398.331000
114.691000 74.632000 398.245000
115.101000 74.601000 398.078000
115.559000 74.601000 398.083000
116.067000 74.634000 398.259000
116.519000 74.631000 398.239000
116.960000 74.621000 398.185000
119.839000 74.705000 398.635000
120.093000 74.578000 397.959000
120.326000 74.440000 397.220000
120.994000 74.571000 397.919000
121.720000 74.736000 398.798000
122.182000 74.738000 398.813000
122.627000 74.730000 398.770000
123.119000 74.751000 398.880000
123.642000 74.790000 399.091000
124.206000 74.854000 399.430000
124.705000 74.878000 399.560000
125.243000 74.926000 399.812000
125.777000 74.970000 400.051000
126.313000 75.016000 400.294000
126.818000 75.043000 400.438000
127.372000 75.098000 400.732000
127.852000 75.110000 400.796000
128.435000 75.182000 401.178000
128.916000 75.194000 401.244000
129.486000 75.257000 401.580000
129.981000 75.277000 401.686000
130.512000 75.317000 401.902000
131.040000 75.355000 402.105000
131.582000 75.401000 402.349000
132.125000 75.447000 402.596000
132.656000 75.486000 402.805000
133.163000 75.512000 402.941000
141.006000 75.999000 405.538000
141.320000 75.917000 405.101000
141.652000 75.846000 404.722000
141.974000 75.770000 404.316000
142.291000 75.691000 403.898000
142.622000 75.621000 403.522000
142.987000 75.569000 403.245000
143.314000 75.497000 402.863000
143.688000 75.450000 402.613000
144.026000 75.385000 402.265000
144.396000 75.338000 402.011000
144.742000 75.277000 401.690000
145.126000 75.237000 401.476000
145.451000 75.167000 401.100000
145.853000 75.137000 400.939000
146.197000 75.077000 400.622000
146.577000 75.036000 400.403000
146.970000 75.002000 400.221000
147.334000 74.953000 399.961000
147.717000 74.915000 399.755000
148.102000 74.877000 399.555000
148.504000 74.849000 399.403000
148.907000 74.821000 399.254000
149.301000 74.788000 399.080000
149.691000 74.754000 398.899000
150.122000 74.741000 398.826000
150.499000 74.701000 398.612000
150.944000 74.694000 398.579000
151.306000 74.647000 398.327000
151.767000 74.649000 398.337000
152.128000 74.602000 398.084000
152.586000 74.602000 398.086000
152.983000 74.573000 397.929000
153.428000 74.567000 397.900000
153.858000 74.554000 397.829000
154.299000 74.546000 397.788000
154.753000 74.545000 397.783000
155.196000 74.538000 397.747000
155.670000 74.547000 397.791000
156.091000 74.530000 397.701000
156.565000 74.538000 397.744000
156.985000 74.520000 397.651000
157.500000 74.548000 397.798000
157.918000 74.530000 397.701000
158.451000 74.566000 397.892000
158.905000 74.564000 397.885000
159.414000 74.589000 398.016000
159.880000 74.593000 398.038000
160.393000 74.619000 398.176000
160.883000 74.634000 398.258000
161.392000 74.658000 398.384000
161.904000 74.683000 398.520000
162.428000 74.714000 398.683000
163.002000 74.767000 398.968000
163.492000 74.782000 399.044000
164.106000 74.853000 399.424000
164.579000 74.859000 399.459000
165.237000 74.950000 399.941000
165.808000 75.000000 400.212000
166.418000 75.068000 400.572000
166.986000 75.117000 400.834000
167.656000 75.211000 401.335000
168.291000 75.289000 401.751000
168.993000 75.396000 402.324000
-4.583000 73.822000 391.525000
-4.129000 73.748000 391.130000
-3.676000 73.671000 390.726000
-3.226000 73.628000 390.498000
-2.775000 73.576000 390.222000
-2.325000 73.517000 389.904000
-1.876000 73.464000 389.625000
-1.428000 73.416000 389.372000
-0.980000 73.378000 389.167000
-0.533000 73.323000 388.877000
-0.087000 73.316000 388.839000
0.360000 73.266000 388.575000
0.805000 73.231000 388.392000
1.251000 73.197000 388.210000
1.696000 73.172000 388.079000
2.141000 73.143000 387.923000
2.586000 73.135000 387.881000
3.030000 73.095000 387.667000
3.474000 73.084000 387.613000
3.918000 73.063000 387.498000
4.363000 73.060000 387.481000
4.807000 73.040000 387.376000
5.251000 73.037000 387.359000
5.695000 73.022000 387.280000
6.140000 73.032000 387.334000
6.584000 73.014000 387.239000
7.029000 73.026000 387.305000
7.472000 73.004000 387.187000
7.920000 73.033000 387.338000
8.363000 73.020000 387.272000
8.810000 73.044000 387.397000
9.255000 73.040000 387.376000
9.703000 73.068000 387.526000
10.149000 73.071000 387.539000
10.597000 73.095000 387.670000
11.044000 73.107000 387.734000
11.493000 73.132000 387.862000
11.940000 73.141000 387.912000
12.392000 73.182000 388.130000
12.843000 73.207000 388.265000
13.296000 73.248000 388.482000
13.746000 73.269000 388.593000
14.202000 73.320000 388.863000
14.655000 73.352000 389.033000
15.113000 73.407000 389.321000
15.566000 73.435000 389.474000
16.024000 73.487000 389.745000
16.484000 73.542000 390.041000
16.946000 73.604000 390.367000
17.411000 73.672000 390.728000
17.872000 73.722000 390.996000
18.342000 73.808000 391.451000
18.813000 73.892000 391.895000
19.287000 73.983000 392.380000
19.764000 74.085000 392.922000
20.241000 74.177000 393.408000
20.717000 74.264000 393.870000
21.202000 74.382000 394.493000
21.696000 74.521000 395.234000
22.196000 74.676000 396.051000
22.683000 74.784000 396.628000
28.203000 74.929000 397.397000
28.656000 74.920000 397.348000
29.102000 74.893000 397.203000
29.546000 74.863000 397.043000
29.987000 74.826000 396.851000
30.439000 74.817000 396.799000
30.876000 74.772000 396.561000
31.330000 74.769000 396.549000
31.762000 74.714000 396.258000
32.216000 74.711000 396.240000
32.653000 74.670000 396.022000
33.099000 74.650000 395.915000
33.537000 74.614000 395.725000
33.990000 74.611000 395.711000
34.426000 74.570000 395.494000
34.877000 74.563000 395.456000
35.305000 74.509000 395.169000
35.757000 74.504000 395.142000
36.188000 74.458000 394.897000
36.640000 74.455000 394.883000
37.089000 74.446000 394.833000
37.544000 74.450000 394.856000
37.986000 74.426000 394.730000
38.436000 74.421000 394.700000
38.865000 74.375000 394.456000
39.302000 74.344000 394.293000
39.730000 74.298000 394.048000
40.171000 74.277000 393.939000
40.607000 74.247000 393.777000
41.043000 74.219000 393.628000
41.482000 74.194000 393.497000
41.925000 74.179000 393.415000
42.356000 74.142000 393.223000
42.789000 74.110000 393.052000
43.288000 74.193000 393.491000
43.789000 74.276000 393.931000
44.208000 74.220000 393.637000
44.656000 74.213000 393.601000
45.050000 74.118000 393.095000
45.467000 74.061000 392.793000
45.984000 74.168000 393.360000
46.432000 74.162000 393.329000
46.848000 74.105000 393.027000
47.280000 74.075000 392.866000
47.712000 74.046000 392.710000
48.187000 74.082000 392.905000
48.701000 74.178000 393.413000
49.191000 74.236000 393.723000
49.633000 74.222000 393.645000
50.068000 74.196000 393.509000
50.480000 74.138000 393.202000
50.901000 74.093000 392.960000
51.357000 74.101000 393.002000
51.871000 74.190000 393.474000
52.352000 74.232000 393.697000
52.808000 74.236000 393.722000
53.253000 74.227000 393.670000
53.713000 74.238000 393.729000
54.162000 74.233000 393.705000
54.650000 74.282000 393.963000
55.108000 74.290000 394.009000
55.538000 74.259000 393.845000
55.955000 74.213000 393.597000
56.377000 74.173000 393.388000
56.782000 74.113000 393.068000
57.213000 74.087000 392.929000
57.725000 74.165000 393.345000
58.246000 74.253000 393.810000
58.697000 74.251000 393.801000
59.147000 74.249000 393.788000
59.684000 74.354000 394.348000
60.159000 74.381000 394.491000
60.597000 74.363000 394.394000
61.019000 74.326000 394.197000
61.423000 74.267000 393.885000
61.825000 74.207000 393.566000
62.301000 74.235000 393.717000
62.763000 74.247000 393.780000
63.269000 74.310000 394.113000
63.734000 74.325000 394.193000
64.219000 74.363000 394.391000
64.650000 74.337000 394.258000
65.093000 74.326000 394.197000
65.536000 74.315000 394.141000
66.028000 74.360000 394.378000
66.473000 74.351000 394.331000
66.971000 74.401000 394.596000
67.419000 74.395000 394.564000
67.889000 74.414000 394.663000
68.311000 74.380000 394.485000
68.820000 74.440000 394.804000
69.271000 74.438000 394.794000
69.740000 74.455000 394.879000
70.149000 74.408000 394.630000
70.542000 74.344000 394.293000
70.932000 74.279000 393.947000
71.377000 74.271000 393.904000
71.928000 74.373000 394.446000
72.401000 74.393000 394.554000
72.887000 74.428000 394.737000
73.360000 74.447000 394.841000
73.822000 74.456000 394.886000
74.297000 74.477000 394.999000
74.745000 74.473000 394.975000
75.189000 74.462000 394.920000
75.638000 74.459000 394.901000
76.116000 74.482000 395.024000
76.586000 74.498000 395.109000
77.015000 74.474000 394.983000
77.465000 74.471000 394.968000
77.941000 74.492000 395.080000
78.416000 74.513000 395.188000
78.866000 74.509000 395.168000
79.288000 74.479000 395.008000
79.708000 74.448000 394.846000
80.182000 74.467000 394.947000
80.673000 74.502000 395.130000
81.143000 74.517000 395.210000
81.593000 74.513000 395.191000
82.116000 74.576000 395.523000
82.539000 74.548000 395.373000
82.969000 74.527000 395.262000
83.419000 74.523000 395.243000
83.927000 74.571000 395.495000
84.373000 74.564000 395.459000
84.881000 74.611000 395.708000
85.310000 74.589000 395.594000
85.752000 74.578000 395.534000
86.203000 74.576000 395.522000
86.704000 74.616000 395.737000
87.166000 74.623000 395.770000
87.666000 74.662000 395.977000
88.109000 74.651000 395.923000
88.535000 74.627000 395.794000
88.959000 74.602000 395.660000
89.397000 74.588000 395.587000
89.848000 74.586000 395.574000
90.350000 74.625000 395.782000
90.838000 74.652000 395.928000
91.290000 74.650000 395.915000
91.766000 74.667000 396.008000
92.229000 74.674000 396.043000
92.667000 74.661000 395.972000
93.115000 74.655000 395.944000
93.612000 74.689000 396.124000
94.085000 74.704000 396.202000
94.577000 74.733000 396.354000
95.004000 74.710000 396.237000
95.417000 74.678000 396.063000
95.880000 74.684000 396.098000
96.379000 74.718000 396.278000
96.792000 74.686000 396.106000
97.263000 74.699000 396.175000
97.758000 74.729000 396.336000
98.244000 74.752000 396.459000
98.680000 74.738000 396.383000
99.166000 74.761000 396.507000
99.628000 74.766000 396.532000
100.112000 74.788000 396.647000
100.602000 74.814000 396.784000
101.080000 74.830000 396.872000
101.511000 74.812000 396.775000
101.934000 74.788000 396.646000
102.368000 74.772000 396.565000
102.832000 74.779000 396.599000
103.331000 74.810000 396.764000
103.803000 74.822000 396.829000
104.234000 74.805000 396.735000
104.701000 74.813000 396.778000
105.180000 74.829000 396.865000
105.651000 74.840000 396.921000
106.058000 74.806000 396.741000
106.492000 74.790000 396.660000
113.199000 75.010000 397.823000
113.723000 75.053000 398.056000
114.219000 75.079000 398.193000
114.609000 75.035000 397.959000
115.041000 75.019000 397.873000
115.474000 75.004000 397.791000
116.045000 75.077000 398.183000
116.491000 75.070000 398.144000
116.963000 75.080000 398.195000
119.882000 75.190000 398.778000
120.107000 75.044000 398.007000
120.383000 74.931000 397.408000
120.914000 74.978000 397.654000
121.675000 75.166000 398.651000
122.147000 75.174000 398.697000
122.588000 75.164000 398.644000
123.093000 75.193000 398.797000
123.626000 75.239000 399.039000
124.187000 75.301000 399.370000
124.691000 75.329000 399.515000
125.234000 75.379000 399.783000
125.760000 75.420000 399.999000
126.297000 75.466000 400.242000
126.804000 75.494000 400.393000
127.355000 75.548000 400.681000
127.834000 75.560000 400.741000
128.414000 75.630000 401.115000
128.901000 75.646000 401.196000
129.470000 75.709000 401.532000
129.961000 75.726000 401.625000
130.496000 75.769000 401.852000
131.020000 75.806000 402.045000
131.568000 75.855000 402.308000
132.120000 75.907000 402.581000
132.654000 75.948000 402.799000
133.162000 75.974000 402.937000
141.032000 76.478000 405.611000
141.334000 76.390000 405.142000
141.664000 76.317000 404.755000
141.987000 76.241000 404.352000
142.309000 76.165000 403.949000
142.645000 76.096000 403.586000
143.000000 76.039000 403.281000
143.307000 75.956000 402.842000
143.683000 75.910000 402.600000
144.037000 75.853000 402.297000
144.407000 75.805000 402.041000
144.749000 75.742000 401.710000
145.143000 75.707000 401.523000
145.458000 75.631000 401.121000
145.869000 75.606000 400.985000
146.210000 75.544000 400.656000
146.590000 75.503000 400.439000
146.977000 75.465000 400.240000
147.341000 75.416000 399.980000
147.741000 75.386000 399.819000
148.117000 75.344000 399.596000
148.505000 75.308000 399.404000
148.911000 75.281000 399.263000
149.296000 75.244000 399.066000
149.688000 75.211000 398.891000
150.114000 75.195000 398.805000
150.487000 75.152000 398.580000
150.937000 75.149000 398.560000
151.306000 75.105000 398.328000
151.764000 75.105000 398.330000
152.130000 75.060000 398.090000
152.596000 75.064000 398.112000
152.997000 75.037000 397.966000
153.442000 75.031000 397.935000
153.866000 75.015000 397.851000
154.304000 75.006000 397.803000
154.751000 75.001000 397.776000
155.197000 74.996000 397.750000
155.674000 75.006000 397.802000
156.092000 74.987000 397.701000
156.564000 74.994000 397.741000
157.001000 74.985000 397.690000
157.510000 75.010000 397.825000
157.926000 74.990000 397.721000
158.459000 75.026000 397.912000
158.902000 75.020000 397.877000
159.408000 75.043000 398.001000
159.873000 75.047000 398.021000
160.390000 75.075000 398.169000
160.873000 75.087000 398.234000
161.391000 75.115000 398.383000
161.906000 75.142000 398.523000
162.426000 75.171000 398.678000
163.010000 75.229000 398.987000
163.500000 75.244000 399.065000
164.100000 75.309000 399.410000
164.571000 75.314000 399.440000
165.244000 75.412000 399.958000
165.807000 75.459000 400.208000
166.429000 75.533000 400.600000
166.981000 75.575000 400.819000
167.656000 75.672000 401.335000
168.314000 75.761000 401.806000
