149.740000 62.157000 372.794000
150.045000 62.106000 372.488000
150.332000 62.048000 372.140000
150.629000 61.994000 371.818000
150.956000 61.953000 371.572000
151.246000 61.897000 371.236000
151.567000 61.854000 370.977000
151.886000 61.811000 370.717000
152.215000 61.771000 370.481000
152.498000 61.714000 370.137000
152.875000 61.694000 370.019000
153.148000 61.634000 369.654000
153.513000 61.610000 369.510000
153.854000 61.576000 369.311000
154.187000 61.540000 369.093000
154.553000 61.517000 368.954000
154.881000 61.479000 368.726000
155.208000 61.441000 368.498000
155.579000 61.420000 368.373000
155.923000 61.389000 368.188000
156.278000 61.363000 368.029000
156.659000 61.346000 367.932000
156.988000 61.310000 367.711000
157.410000 61.309000 367.710000
157.727000 61.269000 367.465000
158.147000 61.268000 367.460000
158.459000 61.226000 367.207000
158.870000 61.221000 367.181000
159.233000 61.199000 367.047000
159.641000 61.194000 367.017000
160.035000 61.183000 366.952000
160.411000 61.166000 366.849000
160.808000 61.157000 366.794000
161.189000 61.141000 366.702000
161.608000 61.141000 366.699000
161.997000 61.129000 366.625000
162.434000 61.135000 366.661000
162.827000 61.124000 366.598000
163.285000 61.138000 366.682000
163.660000 61.121000 366.579000
164.126000 61.138000 366.679000
164.501000 61.120000 366.577000
164.954000 61.132000 366.648000
165.424000 61.150000 366.756000
165.857000 61.155000 366.782000
166.327000 61.173000 366.891000
166.765000 61.179000 366.928000
167.230000 61.195000 367.022000
167.682000 61.206000 367.090000
168.187000 61.236000 367.272000
168.639000 61.247000 367.338000
169.132000 61.273000 367.492000
169.608000 61.293000 367.610000
170.162000 61.340000 367.895000
170.618000 61.352000 367.966000
171.208000 61.412000 368.328000
171.731000 61.448000 368.543000
172.325000 61.509000 368.908000
172.901000 61.563000 369.233000
173.472000 61.616000 369.546000
5.361000 61.204000 364.567000
5.774000 61.142000 364.200000
6.189000 61.114000 364.029000
6.603000 61.080000 363.831000
7.015000 61.026000 363.509000
7.429000 60.997000 363.333000
7.841000 60.960000 363.113000
8.254000 60.926000 362.912000
8.665000 60.891000 362.704000
9.080000 60.878000 362.626000
9.491000 60.847000 362.438000
9.903000 60.821000 362.284000
10.316000 60.802000 362.173000
10.729000 60.783000 362.059000
11.143000 60.774000 362.005000
11.554000 60.753000 361.878000
11.969000 60.750000 361.862000
12.382000 60.738000 361.793000
12.794000 60.718000 361.672000
13.207000 60.710000 361.623000
13.621000 60.706000 361.599000
14.036000 60.703000 361.583000
14.451000 60.701000 361.573000
14.866000 60.702000 361.576000
15.284000 60.711000 361.630000
15.699000 60.713000 361.641000
16.121000 60.736000 361.777000
16.535000 60.730000 361.746000
16.956000 60.751000 361.867000
17.368000 60.740000 361.803000
17.794000 60.774000 362.007000
18.210000 60.778000 362.029000
18.641000 60.826000 362.318000
19.060000 60.834000 362.365000
19.486000 60.866000 362.554000
19.902000 60.867000 362.558000
20.337000 60.923000 362.891000
20.759000 60.937000 362.978000
21.194000 60.991000 363.299000
21.622000 61.020000 363.470000
22.059000 61.074000 363.793000
22.481000 61.086000 363.867000
22.926000 61.158000 364.293000
23.361000 61.203000 364.558000
23.808000 61.276000 364.995000
24.244000 61.318000 365.246000
24.699000 61.408000 365.779000
36.158000 62.336000 371.311000
36.555000 62.286000 371.011000
36.961000 62.253000 370.814000
37.356000 62.200000 370.500000
37.762000 62.169000 370.315000
38.164000 62.131000 370.087000
38.567000 62.096000 369.879000
38.959000 62.044000 369.572000
39.369000 62.021000 369.431000
39.768000 61.981000 369.196000
40.175000 61.956000 369.044000
40.576000 61.920000 368.835000
40.979000 61.890000 368.652000
41.376000 61.851000 368.420000
41.781000 61.824000 368.259000
42.175000 61.782000 368.011000
42.584000 61.762000 367.893000
42.983000 61.728000 367.686000
43.384000 61.698000 367.511000
43.781000 61.663000 367.300000
44.188000 61.642000 367.174000
44.587000 61.611000 366.994000
44.992000 61.588000 366.854000
45.392000 61.560000 366.689000
45.795000 61.535000 366.541000
46.189000 61.500000 366.329000
46.592000 61.477000 366.193000
46.989000 61.446000 366.007000
47.400000 61.434000 365.938000
47.791000 61.396000 365.713000
48.194000 61.374000 365.582000
48.588000 61.342000 365.391000
65.284000 61.261000 364.907000
65.671000 61.231000 364.730000
66.080000 61.222000 364.674000
66.503000 61.225000 364.694000
66.971000 61.271000 364.965000
67.367000 61.250000 364.839000
67.787000 61.250000 364.843000
68.225000 61.268000 364.947000
68.643000 61.267000 364.940000
69.075000 61.278000 365.009000
69.485000 61.270000 364.960000
69.879000 61.249000 364.833000
70.293000 61.244000 364.807000
70.773000 61.297000 365.121000
71.172000 61.280000 365.019000
71.567000 61.259000 364.896000
71.966000 61.242000 364.792000
72.385000 61.242000 364.794000
72.788000 61.229000 364.714000
73.185000 61.210000 364.606000
73.589000 61.198000 364.533000
74.028000 61.215000 364.634000
74.511000 61.268000 364.946000
74.971000 61.302000 365.148000
75.396000 61.306000 365.176000
75.775000 61.273000 364.980000
76.167000 61.252000 364.850000
76.543000 61.217000 364.646000
76.941000 61.201000 364.549000
77.407000 61.239000 364.773000
77.806000 61.223000 364.679000
78.267000 61.255000 364.874000
78.671000 61.244000 364.808000
79.154000 61.294000 365.102000
79.565000 61.288000 365.065000
79.981000 61.285000 365.050000
80.402000 61.287000 365.059000
80.872000 61.325000 365.289000
81.253000 61.296000 365.116000
81.632000 61.266000 364.937000
82.020000 61.243000 364.798000
82.466000 61.262000 364.915000
82.891000 61.267000 364.945000
83.334000 61.285000 365.047000
83.762000 61.291000 365.086000
84.186000 61.295000 365.107000
84.619000 61.305000 365.166000
85.045000 61.309000 365.195000
85.455000 61.303000 365.154000
85.829000 61.270000 364.963000
86.253000 61.274000 364.985000
86.705000 61.297000 365.123000
87.173000 61.331000 365.325000
87.557000 61.307000 365.180000
87.972000 61.304000 365.163000
88.363000 61.284000 365.043000
88.836000 61.321000 365.267000
89.251000 61.318000 365.248000
89.681000 61.325000 365.290000
90.091000 61.319000 365.250000
90.537000 61.337000 365.360000
90.961000 61.340000 365.378000
91.400000 61.353000 365.454000
91.793000 61.336000 365.351000
92.195000 61.323000 365.278000
92.580000 61.301000 365.142000
93.011000 61.308000 365.189000
93.438000 61.314000 365.220000
93.885000 61.331000 365.327000
94.342000 61.356000 365.474000
94.777000 61.366000 365.531000
95.192000 61.363000 365.513000
95.594000 61.351000 365.445000
95.998000 61.342000 365.387000
96.432000 61.351000 365.441000
96.889000 61.374000 365.582000
97.335000 61.391000 365.679000
97.763000 61.396000 365.712000
98.144000 61.371000 365.564000
98.572000 61.377000 365.596000
98.986000 61.373000 365.576000
99.406000 61.373000 365.575000
99.783000 61.347000 365.417000
100.289000 61.400000 365.736000
100.691000 61.389000 365.667000
101.101000 61.383000 365.632000
101.476000 61.356000 365.473000
101.919000 61.370000 365.553000
102.410000 61.413000 365.809000
102.807000 61.399000 365.728000
103.204000 61.385000 365.645000
103.614000 61.379000 365.612000
104.055000 61.392000 365.688000
104.504000 61.409000 365.789000
104.956000 61.428000 365.900000
105.421000 61.454000 366.056000
105.852000 61.460000 366.090000
106.264000 61.455000 366.063000
106.666000 61.444000 365.999000
107.088000 61.446000 366.006000
107.545000 61.466000 366.130000
107.975000 61.472000 366.162000
108.410000 61.481000 366.214000
108.785000 61.454000 366.059000
109.181000 61.441000 365.979000
109.573000 61.425000 365.883000
110.007000 61.433000 365.931000
110.452000 61.447000 366.013000
110.910000 61.467000 366.136000
111.317000 61.460000 366.094000
111.762000 61.473000 366.172000
112.184000 61.474000 366.177000
112.588000 61.465000 366.123000
113.033000 61.479000 366.206000
113.481000 61.494000 366.293000
113.913000 61.500000 366.330000
114.307000 61.485000 366.243000
114.739000 61.492000 366.280000
115.162000 61.493000 366.288000
115.604000 61.504000 366.356000
116.018000 61.501000 366.336000
116.546000 61.557000 366.672000
116.933000 61.540000 366.568000
117.402000 61.565000 366.716000
117.817000 61.562000 366.699000
118.289000 61.588000 366.854000
118.736000 61.602000 366.936000
119.149000 61.597000 366.909000
119.523000 61.573000 366.765000
119.938000 61.570000 366.746000
120.357000 61.569000 366.740000
120.776000 61.567000 366.732000
121.193000 61.566000 366.721000
121.592000 61.554000 366.654000
122.025000 61.561000 366.691000
122.513000 61.594000 366.891000
123.042000 61.648000 367.212000
123.457000 61.645000 367.191000
123.860000 61.635000 367.137000
126.761000 61.816000 368.215000
126.996000 61.725000 367.672000
127.251000 61.645000 367.191000
127.544000 61.582000 366.819000
127.985000 61.591000 366.875000
128.665000 61.716000 367.616000
129.094000 61.719000 367.635000
129.592000 61.755000 367.852000
130.029000 61.762000 367.892000
130.531000 61.800000 368.115000
131.021000 61.832000 368.305000
131.543000 61.878000 368.583000
132.007000 61.897000 368.698000
132.538000 61.948000 368.998000
132.978000 61.955000 369.041000
133.521000 62.011000 369.372000
134.001000 62.036000 369.525000
134.511000 62.076000 369.762000
134.991000 62.102000 369.914000
135.486000 62.134000 370.106000
135.972000 62.162000 370.271000
136.485000 62.202000 370.511000
136.991000 62.238000 370.728000
137.510000 62.281000 370.980000
138.026000 62.321000 371.220000
138.500000 62.342000 371.349000
139.027000 62.388000 371.620000
139.510000 62.413000 371.768000
140.054000 62.465000 372.081000
140.510000 62.478000 372.156000
141.017000 62.513000 372.367000
148.392000 62.921000 374.794000
148.639000 62.843000 374.331000
148.949000 62.793000 374.031000
149.208000 62.721000 373.605000
149.504000 62.665000 373.272000
149.787000 62.605000 372.910000
150.079000 62.548000 372.572000
150.372000 62.492000 372.238000
150.681000 62.443000 371.946000
151.002000 62.399000 371.684000
151.288000 62.341000 371.338000
151.606000 62.297000 371.075000
151.921000 62.251000 370.803000
152.237000 62.206000 370.535000
152.538000 62.155000 370.233000
152.904000 62.131000 370.090000
153.198000 62.078000 369.773000
153.557000 62.052000 369.617000
153.890000 62.015000 369.397000
154.229000 61.981000 369.193000
154.582000 61.952000 369.023000
154.908000 61.913000 368.792000
155.256000 61.883000 368.611000
155.620000 61.860000 368.472000
155.950000 61.823000 368.251000
156.317000 61.800000 368.120000
156.684000 61.778000 367.989000
157.026000 61.747000 367.801000
157.427000 61.739000 367.751000
157.764000 61.705000 367.553000
158.171000 61.699000 367.517000
158.510000 61.667000 367.324000
158.920000 61.662000 367.298000
159.282000 61.639000 367.159000
159.692000 61.635000 367.133000
160.060000 61.614000 367.010000
160.440000 61.598000 366.917000
160.844000 61.592000 366.876000
161.229000 61.578000 366.794000
161.638000 61.573000 366.765000
162.028000 61.561000 366.695000
162.471000 61.570000 366.744000
162.872000 61.562000 366.701000
163.305000 61.567000 366.727000
163.691000 61.553000 366.648000
164.161000 61.572000 366.757000
164.547000 61.558000 366.678000
164.998000 61.570000 366.746000
165.462000 61.586000 366.840000
165.890000 61.588000 366.855000
166.361000 61.607000 366.965000
166.816000 61.619000 367.038000
167.279000 61.634000 367.130000
167.745000 61.651000 367.227000
168.238000 61.677000 367.384000
168.685000 61.686000 367.438000
169.215000 61.725000 367.672000
169.667000 61.736000 367.737000
170.225000 61.785000 368.031000
170.689000 61.801000 368.122000
171.265000 61.856000 368.450000
171.779000 61.888000 368.644000
172.372000 61.950000 369.009000
172.969000 62.012000 369.379000
4.941000 61.605000 364.460000
5.354000 61.547000 364.119000
5.768000 61.499000 363.833000
6.181000 61.454000 363.570000
6.595000 61.422000 363.379000
7.007000 61.371000 363.079000
7.419000 61.334000 362.857000
7.832000 61.307000 362.699000
8.244000 61.272000 362.493000
8.656000 61.241000 362.312000
9.069000 61.224000 362.209000
9.481000 61.198000 362.056000
9.892000 61.165000 361.861000
10.305000 61.153000 361.791000
10.716000 61.125000 361.622000
11.129000 61.114000 361.559000
11.541000 61.097000 361.460000
11.954000 61.090000 361.414000
12.367000 61.079000 361.348000
12.781000 61.072000 361.308000
13.192000 61.056000 361.215000
13.609000 61.064000 361.262000
14.021000 61.051000 361.187000
14.437000 61.060000 361.236000
14.849000 61.048000 361.167000
15.267000 61.061000 361.244000
15.682000 61.061000 361.246000
16.100000 61.074000 361.319000
16.516000 61.078000 361.346000
16.937000 61.097000 361.459000
17.352000 61.100000 361.476000
17.776000 61.129000 361.644000
18.193000 61.135000 361.681000
18.618000 61.166000 361.864000
19.040000 61.187000 361.988000
19.464000 61.214000 362.150000
19.884000 61.227000 362.225000
20.314000 61.269000 362.475000
20.735000 61.284000 362.562000
21.169000 61.336000 362.869000
21.594000 61.358000 363.004000
22.029000 61.408000 363.296000
22.453000 61.427000 363.412000
22.900000 61.507000 363.881000
23.330000 61.539000 364.074000
23.775000 61.608000 364.481000
24.213000 61.658000 364.777000
24.655000 61.717000 365.128000
25.098000 61.774000 365.465000
36.100000 62.661000 370.711000
36.500000 62.618000 370.453000
36.907000 62.587000 370.271000
37.304000 62.540000 369.992000
37.709000 62.506000 369.795000
38.111000 62.469000 369.572000
38.518000 62.441000 369.407000
38.911000 62.390000 369.110000
39.319000 62.367000 368.968000
39.720000 62.330000 368.753000
40.129000 62.308000 368.624000
40.525000 62.266000 368.375000
40.935000 62.247000 368.259000
41.330000 62.205000 368.010000
41.740000 62.185000 367.894000
42.134000 62.144000 367.653000
42.538000 62.117000 367.493000
42.940000 62.088000 367.318000
43.348000 62.069000 367.205000
43.743000 62.030000 366.977000
44.153000 62.015000 366.887000
44.549000 61.980000 366.679000
44.956000 61.960000 366.564000
45.356000 61.931000 366.392000
45.762000 61.911000 366.276000
46.151000 61.869000 366.023000
46.560000 61.854000 365.936000
46.948000 61.812000 365.690000
47.361000 61.802000 365.630000
47.758000 61.774000 365.461000
48.160000 61.750000 365.323000
48.557000 61.722000 365.157000
64.737000 61.558000 364.183000
65.212000 61.612000 364.503000
65.600000 61.583000 364.333000
65.996000 61.562000 364.211000
66.454000 61.599000 364.425000
66.910000 61.633000 364.631000
67.321000 61.626000 364.589000
67.767000 61.652000 364.739000
68.195000 61.660000 364.788000
68.619000 61.665000 364.816000
69.034000 61.661000 364.791000
69.438000 61.647000 364.714000
69.819000 61.614000 364.518000
70.224000 61.602000 364.446000
70.622000 61.584000 364.341000
71.090000 61.627000 364.594000
71.499000 61.620000 364.549000
71.929000 61.629000 364.605000
72.352000 61.633000 364.628000
72.759000 61.623000 364.566000
73.183000 61.628000 364.598000
73.612000 61.636000 364.645000
74.062000 61.662000 364.800000
74.488000 61.668000 364.835000
74.904000 61.666000 364.823000
75.352000 61.690000 364.964000
75.723000 61.650000 364.729000
76.105000 61.621000 364.555000
76.532000 61.627000 364.595000
76.979000 61.650000 364.728000
77.432000 61.677000 364.890000
77.803000 61.639000 364.664000
78.181000 61.607000 364.477000
78.596000 61.604000 364.456000
79.065000 61.644000 364.693000
79.510000 61.664000 364.810000
79.961000 61.689000 364.958000
80.397000 61.702000 365.037000
80.830000 61.712000 365.097000
81.204000 61.678000 364.897000
81.579000 61.645000 364.699000
81.956000 61.614000 364.514000
82.415000 61.644000 364.691000
82.893000 61.687000 364.950000
83.348000 61.714000 365.110000
83.749000 61.701000 365.030000
84.132000 61.674000 364.872000
84.532000 61.661000 364.793000
84.965000 61.671000 364.853000
85.420000 61.697000 365.005000
85.825000 61.687000 364.945000
86.259000 61.698000 365.011000
86.697000 61.711000 365.089000
87.150000 61.735000 365.231000
87.531000 61.708000 365.070000
87.947000 61.705000 365.056000
88.336000 61.684000 364.931000
88.809000 61.722000 365.153000
89.220000 61.716000 365.120000
89.650000 61.724000 365.166000
90.055000 61.714000 365.105000
90.486000 61.722000 365.153000
90.906000 61.722000 365.158000
91.334000 61.728000 365.191000
91.737000 61.717000 365.127000
92.140000 61.706000 365.060000
92.556000 61.704000 365.048000
92.976000 61.705000 365.054000
93.437000 61.732000 365.214000
93.872000 61.743000 365.278000
94.302000 61.749000 365.316000
94.730000 61.755000 365.350000
95.146000 61.753000 365.337000
95.550000 61.743000 365.279000
95.977000 61.748000 365.307000
96.417000 61.760000 365.382000
96.869000 61.781000 365.505000
97.294000 61.785000 365.525000
97.710000 61.783000 365.514000
98.101000 61.764000 365.406000
98.553000 61.785000 365.526000
98.951000 61.771000 365.445000
99.397000 61.788000 365.544000
99.766000 61.756000 365.357000
100.212000 61.773000 365.454000
100.633000 61.773000 365.459000
101.055000 61.774000 365.465000
101.444000 61.756000 365.356000
101.904000 61.781000 365.501000
102.370000 61.808000 365.667000
102.792000 61.810000 365.674000
103.176000 61.788000 365.546000
103.590000 61.785000 365.527000
104.034000 61.799000 365.611000
104.526000 61.842000 365.865000
104.982000 61.863000 365.989000
105.405000 61.865000 366.001000
105.816000 61.859000 365.968000
106.231000 61.856000 365.949000
106.647000 61.854000 365.934000
107.067000 61.854000 365.935000
107.538000 61.883000 366.107000
107.975000 61.892000 366.162000
108.376000 61.882000 366.099000
108.724000 61.840000 365.854000
109.142000 61.839000 365.848000
109.526000 61.818000 365.726000
110.017000 61.858000 365.962000
110.439000 61.860000 365.969000
110.836000 61.847000 365.892000
111.322000 61.883000 366.110000
111.769000 61.898000 366.195000
112.202000 61.905000 366.236000
112.596000 61.890000 366.150000
112.971000 61.866000 366.005000
113.438000 61.891000 366.153000
113.905000 61.916000 366.304000
114.309000 61.907000 366.250000
114.736000 61.911000 366.271000
115.176000 61.921000 366.333000
115.594000 61.920000 366.324000
116.007000 61.916000 366.302000
116.537000 61.974000 366.646000
116.934000 61.961000 366.569000
117.406000 61.988000 366.730000
117.819000 61.984000 366.703000
118.286000 62.008000 366.847000
118.723000 62.016000 366.896000
119.136000 62.012000 366.871000
119.528000 61.997000 366.779000
119.928000 61.986000 366.714000
120.299000 61.960000 366.562000
120.732000 61.966000 366.599000
121.187000 61.984000 366.703000
121.563000 61.961000 366.568000
121.994000 61.966000 366.597000
122.454000 61.985000 366.714000
123.038000 62.067000 367.199000
123.498000 62.087000 367.313000
123.879000 62.066000 367.193000
126.803000 62.260000 368.338000
127.035000 62.167000 367.785000
127.260000 62.070000 367.216000
127.522000 61.993000 366.757000
127.970000 62.006000 366.834000
128.657000 62.134000 367.593000
129.107000 62.148000 367.674000
129.605000 62.184000 367.888000
130.026000 62.183000 367.882000
130.520000 62.217000 368.085000
131.020000 62.254000 368.304000
131.541000 62.301000 368.578000
132.007000 62.321000 368.697000
132.548000 62.376000 369.025000
132.978000 62.379000 369.043000
133.518000 62.434000 369.364000
133.997000 62.459000 369.515000
134.506000 62.498000 369.748000
135.001000 62.531000 369.940000
135.511000 62.570000 370.173000
135.985000 62.593000 370.307000
136.494000 62.631000 370.533000
137.004000 62.670000 370.763000
137.526000 62.714000 371.023000
138.048000 62.757000 371.281000
138.518000 62.777000 371.399000
139.040000 62.820000 371.652000
139.519000 62.844000 371.792000
140.074000 62.902000 372.133000
140.543000 62.920000 372.243000
148.440000 63.372000 374.915000
148.702000 63.300000 374.490000
149.007000 63.247000 374.176000
149.254000 63.170000 373.720000
149.536000 63.108000 373.353000
149.838000 63.054000 373.037000
150.129000 62.997000 372.696000
150.409000 62.935000 372.330000
150.735000 62.892000 372.079000
151.043000 62.843000 371.784000
151.326000 62.783000 371.432000
151.664000 62.747000 371.217000
151.970000 62.697000 370.923000
152.288000 62.652000 370.659000
152.608000 62.609000 370.403000
152.960000 62.579000 370.225000
153.241000 62.520000 369.878000
153.614000 62.499000 369.754000
153.924000 62.453000 369.479000
154.279000 62.425000 369.312000
154.628000 62.394000 369.132000
154.948000 62.353000 368.886000
155.301000 62.324000 368.719000
155.667000 62.301000 368.582000
156.011000 62.270000 368.397000
156.368000 62.244000 368.241000
156.729000 62.219000 368.096000
157.074000 62.188000 367.913000
157.474000 62.179000 367.860000
157.799000 62.141000 367.634000
158.220000 62.141000 367.631000
158.539000 62.100000 367.391000
158.959000 62.100000 367.389000
159.321000 62.076000 367.250000
159.725000 62.069000 367.208000
160.085000 62.045000 367.068000
160.472000 62.032000 366.989000
160.876000 62.025000 366.948000
161.255000 62.009000 366.852000
161.676000 62.009000 366.852000
162.080000 62.002000 366.812000
162.509000 62.005000 366.830000
162.901000 61.994000 366.766000
163.357000 62.007000 366.844000
163.728000 61.988000 366.731000
164.192000 62.005000 366.827000
164.600000 62.000000 366.797000
165.056000 62.013000 366.875000
165.494000 62.019000 366.912000
165.911000 62.017000 366.903000
166.381000 62.035000 367.009000
166.858000 62.056000 367.131000
167.327000 62.074000 367.236000
167.811000 62.097000 367.373000
168.301000 62.122000 367.521000
168.744000 62.130000 367.566000
169.297000 62.178000 367.850000
169.724000 62.179000 367.861000
170.299000 62.235000 368.190000
170.755000 62.247000 368.263000
171.326000 62.301000 368.580000
171.843000 62.335000 368.782000
172.471000 62.409000 369.221000
173.060000 62.469000 369.572000
4.520000 61.997000 364.307000
4.935000 61.945000 364.003000
5.348000 61.894000 363.700000
5.763000 61.860000 363.503000
6.174000 61.800000 363.149000
6.587000 61.762000 362.927000
7.001000 61.738000 362.783000
7.412000 61.693000 362.520000
7.824000 61.657000 362.308000
8.236000 61.630000 362.150000
8.647000 61.593000 361.934000
9.059000 61.569000 361.792000
9.472000 61.552000 361.691000
9.883000 61.526000 361.540000
10.293000 61.496000 361.362000
10.705000 61.479000 361.263000
11.115000 61.454000 361.115000
11.530000 61.456000 361.128000
11.943000 61.444000 361.056000
12.354000 61.428000 360.963000
12.768000 61.425000 360.946000
13.178000 61.406000 360.836000
13.595000 61.416000 360.891000
14.007000 61.407000 360.838000
14.424000 61.418000 360.902000
14.835000 61.404000 360.823000
15.253000 61.417000 360.897000
15.666000 61.413000 360.877000
16.084000 61.425000 360.948000
16.500000 61.431000 360.981000
16.916000 61.439000 361.026000
17.338000 61.463000 361.169000
17.757000 61.478000 361.260000
18.174000 61.485000 361.299000
18.597000 61.512000 361.457000
19.014000 61.520000 361.505000
19.439000 61.551000 361.688000
19.862000 61.574000 361.823000
20.287000 61.605000 362.001000
20.711000 61.627000 362.132000
21.143000 61.676000 362.418000
21.568000 61.700000 362.561000
22.003000 61.754000 362.878000
22.432000 61.787000 363.074000
22.872000 61.849000 363.439000
23.294000 61.862000 363.516000
23.743000 61.943000 363.991000
24.177000 61.987000 364.246000
24.624000 62.057000 364.658000
25.066000 62.115000 365.000000
25.515000 62.190000 365.438000
36.049000 62.998000 370.187000
36.451000 62.958000 369.957000
36.863000 62.936000 369.828000
37.261000 62.891000 369.560000
37.665000 62.858000 369.366000
38.056000 62.803000 369.044000
38.476000 62.797000 369.006000
38.869000 62.747000 368.716000
39.276000 62.721000 368.560000
39.678000 62.687000 368.364000
40.084000 62.660000 368.205000
40.481000 62.621000 367.971000
40.889000 62.598000 367.838000
41.288000 62.564000 367.637000
41.690000 62.533000 367.455000
42.096000 62.510000 367.319000
42.502000 62.486000 367.178000
42.902000 62.455000 366.996000
43.310000 62.435000 366.883000
43.703000 62.395000 366.644000
44.112000 62.378000 366.549000
44.512000 62.349000 366.373000
44.916000 62.326000 366.241000
45.317000 62.299000 366.083000
45.720000 62.274000 365.937000
46.115000 62.241000 365.738000
46.524000 62.226000 365.651000
46.917000 62.191000 365.447000
47.319000 62.167000 365.306000
47.724000 62.149000 365.202000
48.122000 62.122000 365.040000
48.524000 62.099000 364.908000
51.769000 61.971000 364.153000
59.783000 62.043000 364.575000
60.199000 62.040000 364.561000
60.583000 62.005000 364.351000
61.024000 62.028000 364.488000
61.399000 61.984000 364.229000
61.833000 61.999000 364.321000
62.228000 61.977000 364.187000
62.641000 61.971000 364.153000
63.031000 61.944000 363.994000
63.485000 61.979000 364.200000
63.929000 62.003000 364.345000
64.349000 62.006000 364.357000
64.740000 61.979000 364.201000
65.200000 62.019000 364.434000
65.562000 61.966000 364.123000
65.974000 61.960000 364.088000
66.409000 61.975000 364.180000
66.870000 62.015000 364.414000
67.292000 62.018000 364.431000
67.738000 62.044000 364.580000
68.162000 62.049000 364.612000
68.582000 62.050000 364.618000
68.969000 62.021000 364.448000
69.372000 62.008000 364.370000
69.753000 61.974000 364.175000
70.126000 61.934000 363.940000
70.531000 61.923000 363.871000
71.033000 61.997000 364.305000
71.440000 61.987000 364.249000
71.909000 62.030000 364.502000
72.321000 62.025000 364.470000
72.762000 62.044000 364.585000
73.214000 62.073000 364.752000
73.633000 62.072000 364.751000
74.026000 62.051000 364.622000
74.410000 62.022000 364.451000
74.850000 62.040000 364.557000
75.260000 62.032000 364.515000
75.686000 62.038000 364.551000
76.069000 62.010000 364.381000
76.537000 62.050000 364.617000
77.002000 62.088000 364.839000
77.424000 62.090000 364.852000
77.776000 62.036000 364.539000
78.158000 62.007000 364.366000
78.548000 61.985000 364.237000
79.023000 62.029000 364.496000
79.459000 62.043000 364.578000
79.943000 62.094000 364.876000
80.361000 62.093000 364.871000
80.783000 62.096000 364.886000
81.153000 62.058000 364.665000
81.535000 62.030000 364.500000
81.932000 62.014000 364.407000
82.400000 62.051000 364.626000
82.888000 62.103000 364.931000
83.334000 62.123000 365.049000
83.721000 62.099000 364.908000
84.092000 62.063000 364.698000
84.474000 62.037000 364.540000
84.911000 62.050000 364.619000
85.382000 62.088000 364.843000
85.812000 62.096000 364.891000
86.249000 62.109000 364.966000
86.673000 62.113000 364.989000
87.102000 62.120000 365.029000
87.528000 62.125000 365.058000
87.920000 62.105000 364.944000
88.325000 62.096000 364.887000
88.787000 62.126000 365.065000
89.195000 62.118000 365.016000
89.628000 62.127000 365.072000
90.037000 62.120000 365.031000
90.456000 62.121000 365.034000
90.848000 62.102000 364.924000
91.275000 62.108000 364.957000
91.693000 62.106000 364.949000
92.126000 62.116000 365.008000
92.547000 62.117000 365.014000
92.987000 62.131000 365.094000
93.419000 62.140000 365.145000
93.835000 62.138000 365.133000
94.282000 62.156000 365.241000
94.702000 62.156000 365.241000
95.103000 62.144000 365.170000
95.521000 62.143000 365.166000
95.953000 62.152000 365.215000
96.397000 62.167000 365.309000
96.838000 62.181000 365.388000
97.235000 62.167000 365.304000
97.659000 62.169000 365.320000
98.067000 62.162000 365.277000
98.533000 62.192000 365.452000
98.928000 62.177000 365.362000
99.367000 62.188000 365.431000
99.753000 62.168000 365.310000
100.154000 62.156000 365.240000
100.577000 62.158000 365.255000
101.032000 62.180000 365.383000
101.433000 62.169000 365.317000
101.907000 62.202000 365.512000
102.335000 62.207000 365.542000
102.753000 62.206000 365.536000
103.138000 62.185000 365.412000
103.560000 62.186000 365.420000
104.028000 62.215000 365.591000
104.517000 62.257000 365.832000
104.964000 62.273000 365.926000
105.379000 62.270000 365.910000
105.785000 62.261000 365.860000
106.199000 62.258000 365.838000
106.619000 62.257000 365.837000
107.049000 62.263000 365.872000
107.540000 62.305000 366.115000
107.926000 62.284000 365.996000
108.332000 62.276000 365.948000
108.674000 62.232000 365.685000
109.148000 62.262000 365.867000
109.533000 62.243000 365.751000
110.009000 62.274000 365.937000
110.390000 62.252000 365.806000
110.871000 62.287000 366.009000
111.297000 62.290000 366.026000
111.784000 62.327000 366.244000
112.187000 62.317000 366.189000
112.570000 62.297000 366.067000
112.887000 62.239000 365.732000
113.353000 62.265000 365.880000
113.899000 62.333000 366.283000
114.305000 62.325000 366.237000
114.763000 62.346000 366.356000
115.178000 62.343000 366.339000
115.588000 62.337000 366.305000
116.010000 62.338000 366.309000
116.526000 62.389000 366.611000
116.931000 62.381000 366.561000
117.433000 62.424000 366.813000
117.841000 62.416000 366.772000
118.295000 62.434000 366.875000
118.703000 62.427000 366.832000
119.096000 62.412000 366.747000
119.484000 62.395000 366.644000
119.884000 62.384000 366.581000
120.314000 62.389000 366.610000
120.757000 62.400000 366.674000
121.195000 62.409000 366.727000
121.560000 62.380000 366.558000
121.992000 62.386000 366.592000
122.443000 62.401000 366.681000
123.039000 62.490000 367.203000
123.529000 62.524000 367.406000
123.896000 62.497000 367.244000
124.240000 62.458000 367.015000
124.658000 62.456000 367.005000
125.071000 62.452000 366.979000
125.806000 62.608000 367.896000
126.519000 62.752000 368.742000
126.837000 62.700000 368.436000
127.053000 62.598000 367.838000
127.261000 62.493000 367.219000
127.507000 62.407000 366.714000
127.966000 62.425000 366.822000
128.648000 62.552000 367.567000
129.139000 62.585000 367.764000
129.612000 62.610000 367.908000
130.033000 62.609000 367.903000
130.526000 62.643000 368.102000
131.036000 62.685000 368.349000
131.550000 62.728000 368.603000
132.000000 62.741000 368.678000
132.554000 62.802000 369.040000
132.986000 62.807000 369.065000
133.523000 62.860000 369.379000
134.004000 62.887000 369.535000
134.516000 62.928000 369.775000
135.006000 62.958000 369.955000
135.518000 62.999000 370.194000
136.012000 63.030000 370.379000
136.520000 63.069000 370.604000
137.029000 63.107000 370.831000
137.546000 63.149000 371.077000
138.076000 63.197000 371.356000
138.555000 63.221000 371.497000
139.075000 63.263000 371.747000
139.562000 63.290000 371.908000
140.103000 63.342000 372.211000
140.591000 63.369000 372.371000
148.504000 63.830000 375.078000
148.765000 63.757000 374.650000
149.061000 63.700000 374.314000
149.312000 63.623000 373.864000
149.605000 63.565000 373.524000
149.903000 63.510000 373.198000
150.183000 63.447000 372.830000
150.463000 63.385000 372.464000
150.790000 63.343000 372.215000
151.086000 63.288000 371.891000
151.376000 63.230000 371.555000
151.726000 63.199000 371.368000
152.027000 63.146000 371.062000
152.347000 63.103000 370.804000
152.669000 63.060000 370.551000
152.987000 63.015000 370.290000
153.269000 62.956000 369.945000
153.665000 62.945000 369.875000
153.959000 62.891000 369.562000
154.315000 62.863000 369.399000
154.650000 62.827000 369.186000
154.983000 62.790000 368.969000
155.345000 62.765000 368.822000
155.694000 62.736000 368.647000
156.038000 62.704000 368.460000
156.408000 62.682000 368.333000
156.774000 62.660000 368.201000
157.132000 62.634000 368.048000
157.515000 62.618000 367.956000
157.848000 62.582000 367.748000
158.249000 62.574000 367.698000
158.593000 62.543000 367.517000
159.001000 62.538000 367.484000
159.370000 62.517000 367.362000
159.769000 62.508000 367.310000
160.134000 62.486000 367.179000
160.536000 62.478000 367.136000
160.931000 62.468000 367.075000
161.306000 62.450000 366.969000
161.743000 62.456000 367.004000
162.133000 62.444000 366.932000
162.560000 62.446000 366.946000
162.950000 62.434000 366.875000
163.401000 62.446000 366.943000
163.774000 62.427000 366.833000
164.251000 62.448000 366.958000
164.663000 62.445000 366.937000
165.118000 62.457000 367.011000
165.545000 62.459000 367.024000
165.983000 62.466000 367.061000
166.422000 62.472000 367.099000
166.914000 62.499000 367.254000
167.384000 62.517000 367.360000
167.862000 62.537000 367.483000
168.338000 62.558000 367.602000
168.793000 62.570000 367.674000
169.341000 62.616000 367.947000
169.777000 62.621000 367.975000
170.371000 62.684000 368.346000
170.825000 62.696000 368.413000
171.407000 62.754000 368.756000
171.950000 62.798000 369.013000
172.569000 62.869000 369.430000
4.101000 62.406000 364.255000
4.515000 62.338000 363.856000
4.928000 62.285000 363.548000
5.342000 62.236000 363.260000
5.756000 62.201000 363.059000
6.168000 62.156000 362.794000
6.579000 62.102000 362.476000
6.991000 62.065000 362.262000
7.404000 62.038000 362.105000
7.814000 61.999000 361.878000
8.227000 61.976000 361.743000
8.638000 61.942000 361.547000
9.050000 61.921000 361.421000
9.461000 61.896000 361.273000
9.872000 61.870000 361.125000
10.282000 61.843000 360.964000
10.694000 61.829000 360.886000
11.104000 61.808000 360.759000
11.517000 61.798000 360.702000
11.931000 61.796000 360.695000
12.342000 61.780000 360.597000
12.754000 61.771000 360.548000
13.166000 61.764000 360.503000
13.580000 61.762000 360.493000
13.994000 61.765000 360.509000
14.406000 61.756000 360.462000
14.822000 61.763000 360.499000
15.236000 61.765000 360.514000
15.651000 61.768000 360.528000
16.067000 61.776000 360.574000
16.481000 61.776000 360.573000
16.900000 61.793000 360.673000
17.318000 61.806000 360.752000
17.739000 61.831000 360.897000
18.155000 61.837000 360.931000
18.578000 61.864000 361.090000
18.993000 61.868000 361.110000
19.417000 61.897000 361.281000
19.837000 61.912000 361.372000
20.267000 61.957000 361.630000
20.691000 61.984000 361.789000
21.121000 62.026000 362.035000
21.544000 62.047000 362.158000
21.976000 62.094000 362.433000
22.407000 62.133000 362.662000
22.839000 62.177000 362.916000
23.270000 62.215000 363.137000
23.712000 62.282000 363.527000
24.143000 62.316000 363.729000
24.598000 62.411000 364.281000
25.033000 62.452000 364.522000
25.484000 62.532000 364.989000
25.932000 62.602000 365.398000
26.392000 62.698000 365.960000
36.000000 63.337000 369.685000
36.401000 63.296000 369.449000
36.815000 63.279000 369.349000
37.209000 63.226000 369.042000
37.624000 63.213000 368.963000
38.018000 63.163000 368.669000
38.430000 63.144000 368.562000
38.833000 63.112000 368.376000
39.235000 63.078000 368.174000
39.633000 63.039000 367.948000
40.044000 63.020000 367.837000
40.443000 62.983000 367.623000
40.852000 62.964000 367.512000
41.248000 62.924000 367.279000
41.657000 62.904000 367.161000
42.056000 62.872000 366.972000
42.472000 62.863000 366.919000
42.860000 62.814000 366.636000
43.274000 62.805000 366.581000
43.669000 62.767000 366.362000
44.078000 62.751000 366.266000
44.480000 62.724000 366.109000
44.881000 62.698000 365.954000
45.277000 62.664000 365.757000
45.691000 62.655000 365.707000
46.085000 62.620000 365.502000
46.490000 62.600000 365.385000
46.889000 62.573000 365.228000
47.291000 62.550000 365.095000
47.695000 62.530000 364.978000
48.094000 62.504000 364.824000
48.490000 62.474000 364.650000
48.894000 62.455000 364.539000
49.267000 62.398000 364.205000
49.727000 62.450000 364.512000
50.218000 62.540000 365.036000
50.655000 62.563000 365.167000
51.017000 62.492000 364.756000
51.360000 62.400000 364.219000
51.746000 62.361000 363.990000
56.334000 62.351000 363.932000
56.744000 62.343000 363.883000
57.163000 62.344000 363.889000
57.612000 62.377000 364.082000
58.036000 62.384000 364.122000
58.443000 62.372000 364.054000
58.863000 62.374000 364.064000
59.322000 62.416000 364.313000
59.736000 62.412000 364.290000
60.164000 62.422000 364.348000
60.547000 62.386000 364.138000
60.969000 62.390000 364.161000
61.351000 62.353000 363.944000
61.775000 62.360000 363.982000
62.197000 62.364000 364.006000
62.601000 62.349000 363.922000
63.022000 62.353000 363.943000
63.472000 62.384000 364.126000
63.924000 62.417000 364.320000
64.341000 62.416000 364.311000
64.751000 62.408000 364.264000
65.149000 62.388000 364.149000
65.528000 62.352000 363.935000
65.954000 62.359000 363.976000
66.398000 62.383000 364.119000
66.839000 62.405000 364.247000
67.286000 62.432000 364.402000
67.717000 62.443000 364.471000
68.122000 62.431000 364.399000
68.537000 62.427000 364.377000
68.900000 62.378000 364.087000
69.291000 62.353000 363.943000
69.656000 62.306000 363.668000
70.023000 62.261000 363.406000
70.452000 62.271000 363.466000
71.020000 62.403000 364.236000
71.450000 62.414000 364.298000
71.909000 62.449000 364.505000
72.328000 62.450000 364.507000
72.794000 62.490000 364.743000
73.233000 62.508000 364.845000
73.609000 62.471000 364.634000
73.972000 62.424000 364.360000
74.347000 62.387000 364.143000
74.783000 62.403000 364.234000
75.190000 62.393000 364.179000
75.649000 62.427000 364.376000
76.051000 62.413000 364.296000
76.534000 62.466000 364.605000
76.962000 62.473000 364.647000
77.364000 62.460000 364.571000
77.727000 62.416000 364.311000
78.136000 62.408000 364.266000
78.567000 62.418000 364.323000
79.006000 62.434000 364.418000
79.438000 62.445000 364.479000
79.900000 62.479000 364.679000
80.321000 62.481000 364.692000
80.727000 62.471000 364.634000
81.117000 62.449000 364.503000
81.506000 62.426000 364.372000
81.945000 62.442000 364.464000
82.402000 62.471000 364.634000
82.851000 62.494000 364.767000
83.285000 62.506000 364.834000
83.682000 62.489000 364.737000
84.060000 62.459000 364.560000
84.452000 62.439000 364.447000
84.890000 62.454000 364.531000
85.348000 62.482000 364.696000
85.780000 62.492000 364.756000
86.215000 62.503000 364.821000
86.612000 62.488000 364.731000
87.048000 62.500000 364.803000
87.462000 62.497000 364.782000
87.921000 62.525000 364.949000
88.326000 62.515000 364.892000
88.775000 62.536000 365.012000
89.173000 62.522000 364.929000
89.613000 62.536000 365.014000
90.010000 62.521000 364.922000
90.413000 62.510000 364.859000
90.780000 62.474000 364.650000
91.199000 62.474000 364.650000
91.660000 62.503000 364.820000
92.121000 62.532000 364.987000
92.558000 62.544000 365.057000
92.970000 62.539000 365.028000
93.373000 62.528000 364.967000
93.796000 62.530000 364.979000
94.263000 62.562000 365.164000
94.667000 62.553000 365.109000
95.077000 62.546000 365.070000
95.478000 62.535000 365.003000
95.938000 62.561000 365.157000
96.388000 62.581000 365.275000
96.826000 62.593000 365.344000
97.203000 62.566000 365.184000
97.613000 62.560000 365.149000
98.043000 62.566000 365.189000
98.500000 62.591000 365.330000
98.888000 62.570000 365.212000
99.320000 62.579000 365.260000
99.724000 62.569000 365.205000
100.146000 62.571000 365.214000
100.548000 62.559000 365.148000
101.007000 62.584000 365.292000
101.444000 62.595000 365.357000
101.913000 62.626000 365.535000
102.322000 62.619000 365.496000
102.719000 62.605000 365.414000
103.103000 62.584000 365.290000
103.552000 62.601000 365.392000
104.048000 62.647000 365.662000
104.517000 62.677000 365.834000
104.961000 62.691000 365.918000
105.363000 62.680000 365.853000
105.764000 62.669000 365.786000
106.173000 62.662000 365.749000
106.594000 62.663000 365.753000
107.048000 62.683000 365.870000
107.489000 62.695000 365.942000
107.873000 62.674000 365.819000
108.278000 62.665000 365.766000
108.689000 62.660000 365.737000
109.149000 62.683000 365.870000
109.571000 62.684000 365.878000
109.958000 62.666000 365.768000
110.382000 62.668000 365.782000
110.885000 62.715000 366.054000
111.334000 62.731000 366.147000
111.864000 62.792000 366.508000
112.233000 62.763000 366.338000
112.538000 62.699000 365.962000
112.929000 62.682000 365.866000
113.348000 62.682000 365.863000
113.861000 62.733000 366.161000
114.297000 62.742000 366.212000
114.752000 62.761000 366.323000
115.170000 62.759000 366.313000
115.591000 62.759000 366.314000
116.005000 62.756000 366.293000
116.505000 62.798000 366.543000
116.920000 62.795000 366.524000
117.429000 62.843000 366.801000
117.835000 62.834000 366.754000
118.274000 62.844000 366.808000
118.700000 62.847000 366.824000
119.078000 62.824000 366.692000
119.450000 62.798000 366.542000
119.848000 62.786000 366.470000
120.330000 62.818000 366.656000
120.771000 62.828000 366.718000
121.177000 62.820000 366.671000
121.570000 62.806000 366.586000
122.015000 62.818000 366.660000
122.478000 62.840000 366.787000
123.054000 62.919000 367.248000
123.534000 62.949000 367.422000
123.902000 62.921000 367.261000
124.232000 62.875000 366.991000
127.291000 62.929000 367.305000
127.568000 62.858000 366.890000
127.985000 62.856000 366.878000
128.614000 62.957000 367.470000
129.220000 63.047000 367.995000
129.641000 63.046000 367.990000
130.050000 63.040000 367.952000
130.546000 63.075000 368.159000
131.063000 63.121000 368.423000
131.576000 63.164000 368.677000
132.007000 63.167000 368.696000
132.549000 63.224000 369.026000
132.993000 63.234000 369.084000
133.535000 63.290000 369.410000
134.021000 63.319000 369.581000
134.538000 63.363000 369.836000
135.016000 63.387000 369.981000
135.549000 63.438000 370.277000
136.043000 63.470000 370.464000
136.560000 63.513000 370.714000
137.066000 63.550000 370.929000
137.582000 63.592000 371.174000
138.108000 63.638000 371.443000
138.590000 63.663000 371.590000
139.133000 63.716000 371.901000
139.616000 63.742000 372.050000
140.164000 63.797000 372.372000
140.649000 63.823000 372.525000
148.588000 64.297000 375.289000
148.865000 64.230000 374.901000
149.130000 64.159000 374.487000
149.378000 64.081000 374.030000
149.687000 64.030000 373.731000
149.976000 63.970000 373.381000
150.248000 63.903000 372.990000
150.532000 63.842000 372.633000
150.862000 63.801000 372.393000
151.149000 63.741000 372.047000
151.435000 63.682000 371.699000
151.782000 63.649000 371.505000
152.072000 63.591000 371.171000
152.410000 63.554000 370.956000
152.711000 63.503000 370.653000
153.047000 63.465000 370.436000
153.339000 63.410000 370.116000
153.720000 63.392000 370.009000
154.024000 63.342000 369.719000
154.384000 63.316000 369.563000
154.707000 63.274000 369.322000
155.036000 63.236000 369.096000
155.390000 63.207000 368.929000
155.729000 63.173000 368.730000
156.091000 63.148000 368.585000
156.459000 63.126000 368.455000
156.831000 63.105000 368.334000
157.185000 63.078000 368.173000
157.566000 63.061000 368.076000
157.907000 63.028000 367.885000
158.307000 63.019000 367.833000
158.636000 62.982000 367.616000
159.037000 62.974000 367.568000
159.407000 62.953000 367.448000
159.821000 62.950000 367.429000
160.190000 62.930000 367.309000
160.590000 62.921000 367.259000
160.987000 62.911000 367.201000
161.373000 62.897000 367.121000
161.807000 62.902000 367.150000
162.174000 62.881000 367.026000
162.597000 62.882000 367.028000
162.981000 62.867000 366.945000
163.467000 62.892000 367.090000
163.830000 62.870000 366.959000
164.311000 62.892000 367.092000
164.718000 62.887000 367.059000
165.175000 62.901000 367.139000
165.594000 62.899000 367.133000
166.066000 62.918000 367.244000
166.493000 62.921000 367.256000
166.968000 62.941000 367.374000
167.435000 62.958000 367.473000
167.929000 62.985000 367.632000
168.413000 63.008000 367.765000
168.855000 63.015000 367.809000
169.409000 63.064000 368.095000
169.837000 63.066000 368.106000
170.440000 63.133000 368.497000
170.932000 63.158000 368.645000
171.497000 63.211000 368.949000
172.073000 63.267000 369.276000
172.652000 63.323000 369.608000
4.096000 62.744000 363.787000
4.510000 62.686000 363.449000
4.923000 62.638000 363.171000
5.336000 62.582000 362.851000
5.749000 62.546000 362.641000
6.161000 62.506000 362.407000
6.573000 62.461000 362.148000
6.983000 62.414000 361.872000
7.397000 62.395000 361.762000
7.807000 62.353000 361.521000
8.217000 62.317000 361.309000
8.628000 62.291000 361.163000
9.040000 62.270000 361.038000
9.451000 62.247000 360.905000
9.863000 62.230000 360.808000
10.273000 62.205000 360.662000
10.684000 62.186000 360.552000
11.097000 62.179000 360.510000
11.504000 62.145000 360.313000
11.920000 62.154000 360.368000
12.329000 62.133000 360.244000
12.743000 62.135000 360.256000
13.157000 62.134000 360.249000
13.568000 62.123000 360.189000
13.983000 62.127000 360.211000
14.392000 62.110000 360.113000
14.808000 62.120000 360.171000
15.223000 62.124000 360.193000
15.637000 62.125000 360.201000
16.052000 62.132000 360.241000
16.464000 62.126000 360.203000
16.887000 62.159000 360.398000
17.298000 62.148000 360.332000
17.722000 62.187000 360.560000
18.137000 62.190000 360.572000
18.558000 62.212000 360.703000
18.975000 62.220000 360.750000
19.397000 62.246000 360.901000
19.816000 62.261000 360.989000
20.250000 62.320000 361.327000
20.667000 62.326000 361.364000
21.097000 62.371000 361.625000
21.517000 62.387000 361.716000
21.952000 62.440000 362.027000
22.376000 62.465000 362.167000
22.814000 62.525000 362.518000
23.247000 62.569000 362.772000
23.686000 62.631000 363.131000
24.117000 62.666000 363.338000
24.561000 62.735000 363.737000
24.999000 62.785000 364.026000
25.456000 62.883000 364.591000
25.897000 62.937000 364.906000
26.357000 63.034000 365.469000
36.359000 63.646000 369.018000
36.775000 63.634000 368.947000
37.171000 63.586000 368.672000
37.580000 63.562000 368.532000
37.987000 63.534000 368.370000
38.391000 63.504000 368.192000
38.792000 63.468000 367.988000
39.199000 63.442000 367.836000
39.594000 63.398000 367.580000
40.008000 63.385000 367.505000
40.406000 63.349000 367.294000
40.813000 63.325000 367.157000
41.215000 63.296000 366.986000
41.627000 63.280000 366.897000
42.023000 63.243000 366.681000
42.435000 63.230000 366.607000
42.828000 63.189000 366.365000
43.234000 63.167000 366.240000
43.638000 63.143000 366.101000
44.043000 63.122000 365.976000
44.449000 63.101000 365.858000
44.850000 63.073000 365.697000
45.247000 63.042000 365.515000
45.660000 63.033000 365.461000
46.058000 63.003000 365.288000
46.456000 62.974000 365.118000
46.860000 62.954000 365.005000
47.258000 62.925000 364.837000
47.660000 62.903000 364.711000
48.064000 62.883000 364.595000
48.457000 62.850000 364.404000
48.867000 62.840000 364.342000
49.237000 62.778000 363.986000
49.700000 62.835000 364.313000
50.167000 62.896000 364.667000
50.624000 62.943000 364.942000
50.993000 62.882000 364.585000
51.341000 62.795000 364.086000
51.693000 62.715000 363.618000
52.132000 62.741000 363.772000
52.564000 62.758000 363.867000
52.970000 62.744000 363.789000
53.371000 62.725000 363.676000
53.788000 62.723000 363.666000
54.202000 62.719000 363.645000
54.635000 62.737000 363.749000
55.059000 62.745000 363.793000
55.463000 62.729000 363.702000
55.869000 62.716000 363.625000
56.300000 62.731000 363.713000
56.765000 62.783000 364.013000
57.218000 62.822000 364.237000
57.624000 62.808000 364.158000
57.998000 62.761000 363.885000
58.387000 62.730000 363.705000
58.803000 62.727000 363.692000
59.255000 62.764000 363.902000
59.677000 62.768000 363.929000
60.104000 62.778000 363.982000
60.507000 62.762000 363.893000
60.911000 62.748000 363.811000
61.311000 62.730000 363.708000
61.752000 62.754000 363.847000
62.171000 62.755000 363.851000
62.590000 62.757000 363.860000
62.992000 62.740000 363.766000
63.427000 62.757000 363.865000
63.875000 62.787000 364.039000
64.310000 62.804000 364.137000
64.735000 62.811000 364.173000
65.138000 62.796000 364.089000
65.524000 62.765000 363.911000
65.958000 62.780000 363.999000
66.394000 62.798000 364.101000
66.807000 62.793000 364.071000
67.241000 62.808000 364.157000
67.703000 62.848000 364.393000
68.124000 62.851000 364.407000
68.500000 62.812000 364.180000
68.877000 62.774000 363.964000
69.237000 62.722000 363.662000
69.580000 62.655000 363.270000
69.941000 62.605000 362.979000
70.405000 62.647000 363.223000
70.959000 62.768000 363.924000
71.428000 62.812000 364.184000
71.902000 62.861000 364.467000
72.350000 62.887000 364.619000
72.785000 62.901000 364.697000
73.191000 62.890000 364.635000
73.555000 62.843000 364.362000
73.924000 62.801000 364.119000
74.311000 62.775000 363.967000
74.729000 62.775000 363.969000
75.167000 62.792000 364.067000
75.624000 62.825000 364.255000
76.037000 62.820000 364.231000
76.503000 62.859000 364.454000
76.900000 62.842000 364.355000
77.301000 62.828000 364.272000
77.699000 62.811000 364.178000
78.142000 62.831000 364.293000
78.574000 62.843000 364.358000
78.996000 62.845000 364.373000
79.405000 62.837000 364.329000
79.857000 62.864000 364.483000
80.271000 62.861000 364.463000
