136.983000 25.235000 475.648000
137.599000 25.248000 475.890000
138.197000 25.258000 476.069000
138.704000 25.250000 475.930000
139.181000 25.238000 475.694000
139.757000 25.243000 475.794000
140.329000 25.248000 475.881000
140.835000 25.241000 475.747000
141.324000 25.230000 475.554000
141.907000 25.237000 475.678000
142.456000 25.237000 475.685000
143.173000 25.268000 476.256000
143.635000 25.252000 475.971000
144.170000 25.251000 475.935000
144.617000 25.233000 475.608000
145.138000 25.229000 475.526000
145.564000 25.208000 475.132000
146.145000 25.214000 475.248000
146.785000 25.230000 475.554000
147.450000 25.251000 475.937000
147.944000 25.242000 475.768000
148.472000 25.239000 475.709000
148.914000 25.221000 475.376000
149.448000 25.219000 475.339000
149.951000 25.212000 475.204000
150.482000 25.209000 475.159000
151.045000 25.212000 475.214000
151.680000 25.227000 475.494000
152.327000 25.244000 475.809000
152.905000 25.249000 475.908000
153.450000 25.249000 475.903000
153.946000 25.241000 475.746000
154.443000 25.232000 475.593000
154.941000 25.225000 475.448000
155.507000 25.228000 475.509000
156.074000 25.231000 475.572000
156.571000 25.223000 475.422000
157.071000 25.216000 475.284000
157.686000 25.227000 475.493000
158.346000 25.245000 475.834000
158.909000 25.248000 475.885000
159.397000 25.239000 475.711000
159.897000 25.231000 475.572000
160.434000 25.230000 475.545000
161.022000 25.237000 475.670000
161.689000 25.255000 476.027000
162.171000 25.245000 475.837000
162.722000 25.246000 475.849000
163.286000 25.249000 475.900000
163.909000 25.261000 476.124000
164.424000 25.256000 476.032000
165.033000 25.265000 476.211000
165.564000 25.263000 476.167000
166.096000 25.261000 476.124000
166.650000 25.262000 476.144000
167.211000 25.264000 476.186000
167.777000 25.267000 476.240000
168.412000 25.280000 476.491000
169.020000 25.289000 476.660000
169.554000 25.287000 476.624000
170.052000 25.280000 476.485000
170.568000 25.275000 476.399000
171.219000 25.291000 476.689000
171.734000 25.286000 476.598000
172.393000 25.302000 476.907000
177.672000 25.352000 477.851000
178.093000 25.334000 477.506000
63.388000 26.292000 485.065000
63.886000 26.268000 484.615000
64.373000 26.239000 484.093000
64.876000 26.218000 483.697000
65.372000 26.194000 483.262000
65.876000 26.174000 482.889000
66.387000 26.157000 482.571000
66.899000 26.140000 482.268000
67.403000 26.121000 481.909000
67.930000 26.111000 481.724000
68.434000 26.092000 481.379000
68.958000 26.081000 481.179000
69.470000 26.066000 480.898000
69.994000 26.056000 480.708000
70.516000 26.044000 480.499000
71.053000 26.039000 480.401000
71.560000 26.023000 480.101000
72.122000 26.027000 480.175000
72.620000 26.008000 479.822000
73.188000 26.014000 479.930000
73.694000 25.998000 479.640000
74.271000 26.007000 479.808000
74.772000 25.990000 479.488000
75.348000 25.998000 479.647000
75.866000 25.987000 479.439000
76.441000 25.996000 479.597000
76.962000 25.986000 479.414000
77.543000 25.996000 479.601000
78.087000 25.993000 479.557000
78.659000 26.000000 479.686000
79.214000 26.002000 479.713000
79.795000 26.012000 479.898000
80.359000 26.016000 479.970000
80.934000 26.024000 480.117000
81.505000 26.030000 480.229000
82.093000 26.042000 480.446000
82.668000 26.049000 480.582000
83.274000 26.066000 480.891000
83.846000 26.072000 481.005000
84.468000 26.093000 481.401000
85.060000 26.105000 481.623000
85.674000 26.124000 481.967000
86.317000 26.151000 482.469000
86.914000 26.164000 482.709000
87.559000 26.191000 483.208000
88.207000 26.219000 483.718000
88.876000 26.253000 484.340000
89.530000 26.281000 484.869000
90.214000 26.318000 485.551000
90.839000 26.338000 485.912000
95.120000 26.288000 484.985000
95.621000 26.272000 484.698000
96.078000 26.245000 484.199000
96.634000 26.245000 484.197000
97.126000 26.228000 483.878000
97.681000 26.227000 483.873000
98.147000 26.204000 483.436000
98.670000 26.195000 483.275000
99.162000 26.178000 482.969000
99.656000 26.162000 482.676000
100.181000 26.155000 482.534000
100.677000 26.140000 482.256000
101.187000 26.128000 482.047000
101.676000 26.112000 481.745000
102.162000 26.095000 481.428000
102.790000 26.114000 481.779000
103.445000 26.139000 482.252000
104.109000 26.167000 482.767000
104.707000 26.178000 482.965000
105.182000 26.158000 482.600000
105.659000 26.139000 482.247000
106.056000 26.101000 481.536000
106.428000 26.056000 480.720000
106.786000 26.009000 479.848000
107.252000 25.988000 479.467000
107.712000 25.967000 479.064000
108.224000 25.958000 478.898000
108.662000 25.931000 478.405000
109.186000 25.925000 478.293000
109.894000 25.962000 478.986000
110.274000 25.922000 478.247000
110.769000 25.910000 478.017000
111.190000 25.880000 477.464000
111.686000 25.868000 477.243000
112.471000 25.923000 478.250000
112.981000 25.913000 478.082000
113.478000 25.902000 477.864000
114.005000 25.897000 477.774000
114.541000 25.894000 477.721000
115.028000 25.880000 477.465000
115.584000 25.882000 477.498000
116.158000 25.887000 477.602000
116.681000 25.882000 477.502000
117.223000 25.881000 477.476000
117.749000 25.876000 477.382000
118.321000 25.881000 477.478000
118.827000 25.872000 477.310000
119.392000 25.875000 477.380000
119.880000 25.862000 477.139000
120.388000 25.854000 476.981000
120.844000 25.834000 476.621000
121.448000 25.846000 476.840000
122.009000 25.849000 476.896000
122.707000 25.881000 477.482000
123.165000 25.862000 477.131000
123.670000 25.853000 476.966000
124.123000 25.833000 476.602000
124.706000 25.840000 476.736000
125.308000 25.852000 476.947000
125.878000 25.856000 477.029000
126.332000 25.837000 476.678000
126.829000 25.827000 476.487000
127.386000 25.829000 476.524000
127.992000 25.841000 476.744000
128.545000 25.842000 476.764000
129.116000 25.847000 476.849000
129.645000 25.843000 476.782000
130.164000 25.837000 476.678000
130.689000 25.833000 476.595000
131.148000 25.815000 476.275000
131.652000 25.807000 476.122000
132.167000 25.801000 476.008000
132.778000 25.813000 476.238000
133.278000 25.804000 476.070000
133.872000 25.814000 476.238000
134.400000 25.810000 476.172000
135.090000 25.837000 476.677000
135.558000 25.822000 476.398000
136.003000 25.803000 476.041000
136.438000 25.782000 475.652000
137.109000 25.805000 476.087000
137.733000 25.820000 476.353000
138.235000 25.811000 476.199000
138.706000 25.797000 475.937000
139.225000 25.792000 475.844000
139.812000 25.800000 475.983000
140.380000 25.803000 476.054000
140.935000 25.805000 476.082000
141.405000 25.791000 475.826000
141.977000 25.796000 475.912000
142.530000 25.797000 475.933000
143.240000 25.826000 476.478000
143.674000 25.806000 476.101000
144.206000 25.804000 476.054000
144.692000 25.793000 475.855000
145.237000 25.792000 475.851000
145.743000 25.785000 475.719000
146.376000 25.801000 476.000000
146.928000 25.802000 476.018000
147.522000 25.810000 476.169000
147.978000 25.794000 475.877000
148.540000 25.797000 475.929000
149.063000 25.793000 475.853000
149.624000 25.795000 475.901000
150.006000 25.767000 475.378000
150.469000 25.753000 475.115000
151.142000 25.774000 475.517000
151.793000 25.792000 475.846000
152.499000 25.819000 476.345000
152.996000 25.811000 476.190000
153.523000 25.808000 476.130000
153.994000 25.795000 475.895000
154.517000 25.791000 475.821000
155.042000 25.787000 475.756000
155.618000 25.792000 475.848000
156.200000 25.798000 475.955000
156.750000 25.799000 475.967000
157.299000 25.799000 475.974000
157.878000 25.805000 476.073000
158.453000 25.809000 476.156000
159.007000 25.810000 476.178000
159.569000 25.813000 476.226000
160.093000 25.809000 476.158000
160.637000 25.809000 476.149000
161.207000 25.812000 476.217000
161.852000 25.828000 476.507000
162.400000 25.828000 476.509000
162.961000 25.830000 476.548000
163.453000 25.822000 476.389000
164.153000 25.846000 476.832000
164.659000 25.839000 476.713000
165.243000 25.845000 476.817000
165.718000 25.834000 476.610000
166.264000 25.833000 476.606000
166.827000 25.836000 476.651000
167.434000 25.845000 476.820000
168.031000 25.853000 476.962000
168.684000 25.869000 477.258000
169.270000 25.875000 477.365000
169.760000 25.866000 477.203000
170.238000 25.855000 477.006000
170.797000 25.857000 477.038000
171.524000 25.884000 477.538000
63.350000 26.833000 484.776000
63.853000 26.810000 484.369000
64.344000 26.783000 483.877000
64.847000 26.762000 483.486000
65.348000 26.739000 483.081000
65.852000 26.719000 482.711000
66.358000 26.699000 482.363000
66.873000 26.684000 482.084000
67.374000 26.663000 481.705000
67.901000 26.653000 481.517000
68.408000 26.635000 481.199000
68.922000 26.620000 480.926000
69.445000 26.609000 480.723000
69.970000 26.598000 480.538000
70.478000 26.582000 480.243000
71.027000 26.581000 480.225000
71.530000 26.563000 479.903000
72.089000 26.566000 479.956000
72.595000 26.550000 479.656000
73.161000 26.555000 479.753000
73.657000 26.535000 479.398000
74.250000 26.550000 479.673000
74.751000 26.533000 479.352000
75.314000 26.537000 479.432000
75.835000 26.527000 479.249000
76.409000 26.535000 479.397000
76.938000 26.528000 479.259000
77.513000 26.536000 479.413000
78.047000 26.531000 479.315000
78.634000 26.543000 479.537000
79.183000 26.542000 479.525000
79.755000 26.549000 479.655000
80.314000 26.552000 479.705000
80.891000 26.561000 479.858000
81.459000 26.566000 479.958000
82.054000 26.581000 480.218000
82.635000 26.590000 480.388000
83.229000 26.604000 480.634000
83.812000 26.613000 480.808000
84.435000 26.636000 481.217000
85.017000 26.645000 481.383000
85.639000 26.667000 481.773000
86.261000 26.688000 482.156000
86.857000 26.701000 482.393000
87.515000 26.733000 482.966000
88.164000 26.761000 483.483000
88.831000 26.795000 484.095000
89.477000 26.822000 484.581000
90.167000 26.862000 485.297000
90.816000 26.889000 485.789000
96.070000 26.799000 484.155000
96.620000 26.797000 484.128000
97.115000 26.780000 483.822000
97.662000 26.778000 483.782000
98.144000 26.758000 483.420000
98.663000 26.748000 483.243000
99.156000 26.731000 482.939000
99.646000 26.714000 482.628000
100.174000 26.707000 482.501000
100.674000 26.693000 482.242000
101.183000 26.681000 482.030000
101.660000 26.661000 481.666000
102.175000 26.651000 481.487000
102.860000 26.685000 482.109000
103.610000 26.736000 483.022000
104.210000 26.747000 483.232000
104.760000 26.746000 483.210000
105.226000 26.724000 482.802000
105.747000 26.715000 482.651000
106.100000 26.665000 481.737000
106.473000 26.620000 480.925000
106.832000 26.572000 480.054000
107.259000 26.541000 479.501000
107.721000 26.519000 479.107000
108.241000 26.512000 478.971000
108.722000 26.495000 478.669000
109.289000 26.499000 478.744000
109.912000 26.517000 479.063000
110.360000 26.492000 478.620000
110.821000 26.471000 478.237000
111.312000 26.457000 477.989000
111.806000 26.444000 477.756000
112.561000 26.493000 478.633000
113.034000 26.475000 478.310000
113.515000 26.459000 478.020000
114.022000 26.449000 477.847000
114.552000 26.445000 477.769000
115.070000 26.438000 477.640000
115.619000 26.438000 477.644000
116.168000 26.438000 477.647000
116.690000 26.432000 477.536000
117.232000 26.431000 477.509000
117.772000 26.429000 477.479000
118.343000 26.434000 477.569000
118.835000 26.421000 477.342000
119.385000 26.422000 477.350000
119.879000 26.410000 477.133000
120.391000 26.402000 476.992000
120.883000 26.390000 476.771000
121.606000 26.428000 477.461000
122.132000 26.423000 477.376000
122.731000 26.434000 477.572000
123.138000 26.404000 477.024000
123.602000 26.386000 476.704000
124.083000 26.372000 476.448000
124.794000 26.407000 477.075000
125.379000 26.414000 477.215000
125.934000 26.416000 477.242000
126.376000 26.394000 476.843000
126.877000 26.384000 476.667000
127.460000 26.392000 476.803000
128.062000 26.403000 477.002000
128.616000 26.404000 477.029000
129.173000 26.406000 477.062000
129.672000 26.396000 476.883000
130.151000 26.382000 476.630000
130.722000 26.387000 476.717000
131.245000 26.382000 476.628000
131.772000 26.378000 476.555000
132.191000 26.352000 476.095000
132.752000 26.355000 476.145000
133.368000 26.369000 476.391000
134.069000 26.399000 476.940000
134.538000 26.384000 476.660000
135.146000 26.396000 476.874000
135.590000 26.376000 476.512000
136.083000 26.365000 476.322000
136.613000 26.362000 476.262000
137.275000 26.384000 476.663000
137.814000 26.382000 476.634000
138.284000 26.367000 476.366000
138.754000 26.353000 476.102000
139.297000 26.352000 476.092000
139.891000 26.361000 476.251000
140.416000 26.357000 476.178000
140.996000 26.363000 476.289000
141.479000 26.351000 476.074000
142.097000 26.364000 476.313000
142.655000 26.367000 476.351000
143.262000 26.378000 476.551000
143.668000 26.352000 476.082000
144.248000 26.358000 476.193000
144.790000 26.357000 476.178000
145.380000 26.365000 476.318000
145.934000 26.366000 476.342000
146.530000 26.375000 476.501000
147.060000 26.372000 476.444000
147.603000 26.371000 476.431000
148.101000 26.362000 476.274000
148.659000 26.364000 476.309000
149.267000 26.375000 476.506000
149.719000 26.358000 476.203000
150.141000 26.336000 475.806000
150.597000 26.321000 475.522000
151.284000 26.345000 475.964000
151.876000 26.353000 476.107000
152.597000 26.383000 476.651000
153.072000 26.371000 476.427000
153.661000 26.378000 476.557000
154.083000 26.357000 476.169000
154.613000 26.354000 476.117000
155.178000 26.357000 476.175000
155.791000 26.368000 476.375000
156.360000 26.372000 476.444000
156.975000 26.383000 476.648000
157.526000 26.384000 476.660000
158.058000 26.381000 476.615000
158.607000 26.381000 476.619000
159.186000 26.387000 476.714000
159.757000 26.391000 476.785000
160.299000 26.390000 476.769000
160.848000 26.390000 476.773000
161.449000 26.399000 476.932000
162.109000 26.417000 477.262000
162.622000 26.411000 477.161000
163.142000 26.407000 477.079000
163.650000 26.400000 476.962000
164.367000 26.428000 477.455000
164.923000 26.429000 477.475000
165.463000 26.427000 477.451000
165.920000 26.413000 477.189000
166.494000 26.417000 477.264000
167.096000 26.426000 477.420000
167.796000 26.450000 477.852000
171.837000 26.480000 478.408000
63.320000 27.376000 484.541000
63.828000 27.356000 484.179000
64.313000 27.326000 483.647000
64.821000 27.305000 483.287000
65.317000 27.281000 482.853000
65.821000 27.260000 482.487000
66.327000 27.240000 482.134000
66.848000 27.227000 481.903000
67.348000 27.205000 481.517000
67.873000 27.195000 481.324000
68.388000 27.179000 481.053000
68.902000 27.164000 480.786000
69.422000 27.152000 480.564000
69.951000 27.143000 480.406000
70.456000 27.125000 480.089000
71.006000 27.124000 480.084000
71.506000 27.105000 479.739000
72.075000 27.112000 479.857000
72.573000 27.092000 479.510000
73.136000 27.097000 479.591000
73.638000 27.079000 479.274000
74.217000 27.089000 479.460000
74.729000 27.075000 479.213000
75.290000 27.079000 479.280000
75.812000 27.069000 479.104000
76.376000 27.074000 479.186000
76.911000 27.069000 479.094000
77.477000 27.074000 479.191000
78.016000 27.070000 479.122000
78.595000 27.080000 479.298000
79.153000 27.083000 479.342000
79.725000 27.090000 479.472000
80.278000 27.091000 479.486000
80.866000 27.103000 479.709000
81.433000 27.109000 479.803000
82.017000 27.120000 480.002000
82.602000 27.131000 480.199000
83.196000 27.145000 480.444000
83.783000 27.156000 480.646000
84.398000 27.177000 481.007000
84.971000 27.183000 481.122000
85.602000 27.208000 481.562000
86.215000 27.227000 481.900000
86.822000 27.244000 482.199000
87.473000 27.274000 482.736000
88.105000 27.298000 483.157000
88.774000 27.333000 483.783000
89.422000 27.362000 484.281000
90.129000 27.408000 485.096000
90.786000 27.438000 485.629000
96.057000 27.351000 484.090000
96.602000 27.348000 484.035000
97.102000 27.332000 483.760000
97.663000 27.334000 483.787000
98.149000 27.314000 483.445000
98.667000 27.304000 483.260000
99.154000 27.285000 482.930000
99.644000 27.268000 482.618000
100.176000 27.262000 482.510000
100.672000 27.246000 482.233000
101.180000 27.234000 482.017000
101.661000 27.214000 481.673000
102.191000 27.208000 481.566000
102.889000 27.246000 482.243000
103.626000 27.295000 483.097000
104.210000 27.302000 483.232000
104.743000 27.297000 483.134000
105.245000 27.283000 482.889000
105.740000 27.268000 482.621000
106.102000 27.218000 481.745000
106.488000 27.176000 480.992000
106.861000 27.130000 480.184000
107.275000 27.095000 479.570000
107.737000 27.073000 479.176000
108.262000 27.067000 479.065000
108.716000 27.043000 478.642000
109.277000 27.046000 478.692000
109.931000 27.072000 479.148000
110.433000 27.060000 478.936000
110.898000 27.039000 478.571000
111.360000 27.018000 478.194000
111.910000 27.018000 478.198000
112.595000 27.051000 478.777000
113.076000 27.034000 478.485000
113.529000 27.011000 478.079000
114.005000 26.994000 477.776000
114.555000 26.994000 477.779000
115.099000 26.993000 477.762000
115.658000 26.996000 477.805000
116.210000 26.996000 477.817000
116.717000 26.987000 477.646000
117.243000 26.982000 477.556000
117.806000 26.985000 477.616000
118.397000 26.995000 477.787000
118.876000 26.979000 477.506000
119.387000 26.970000 477.358000
119.885000 26.959000 477.158000
120.464000 26.966000 477.281000
121.013000 26.966000 477.286000
121.664000 26.989000 477.692000
122.197000 26.986000 477.630000
122.714000 26.979000 477.507000
123.143000 26.953000 477.044000
123.637000 26.941000 476.838000
124.175000 26.939000 476.801000
124.865000 26.970000 477.344000
125.366000 26.960000 477.167000
125.907000 26.958000 477.142000
126.435000 26.954000 477.065000
127.002000 26.958000 477.137000
127.529000 26.953000 477.057000
128.109000 26.960000 477.180000
128.660000 26.961000 477.191000
129.178000 26.955000 477.079000
129.689000 26.947000 476.943000
130.193000 26.938000 476.783000
130.793000 26.949000 476.976000
131.318000 26.944000 476.893000
131.858000 26.943000 476.866000
132.283000 26.918000 476.425000
132.867000 26.925000 476.558000
133.397000 26.922000 476.496000
134.087000 26.950000 477.003000
134.520000 26.927000 476.596000
135.151000 26.944000 476.894000
135.666000 26.938000 476.780000
136.214000 26.938000 476.779000
136.792000 26.944000 476.887000
137.341000 26.944000 476.890000
137.820000 26.931000 476.654000
138.333000 26.924000 476.536000
138.840000 26.916000 476.398000
139.436000 26.926000 476.567000
140.021000 26.933000 476.695000
140.498000 26.919000 476.455000
141.053000 26.921000 476.481000
141.572000 26.916000 476.389000
142.208000 26.932000 476.685000
142.729000 26.928000 476.599000
143.243000 26.921000 476.488000
143.719000 26.908000 476.251000
144.397000 26.932000 476.685000
144.886000 26.922000 476.492000
145.476000 26.929000 476.633000
145.997000 26.925000 476.547000
146.608000 26.936000 476.755000
147.145000 26.934000 476.721000
147.688000 26.934000 476.706000
148.176000 26.923000 476.514000
148.754000 26.928000 476.614000
149.333000 26.934000 476.715000
149.798000 26.919000 476.454000
150.300000 26.911000 476.310000
150.806000 26.904000 476.182000
151.457000 26.922000 476.507000
152.059000 26.932000 476.681000
152.705000 26.950000 476.990000
153.205000 26.941000 476.841000
153.813000 26.952000 477.029000
154.283000 26.938000 476.789000
154.793000 26.932000 476.672000
155.343000 26.932000 476.681000
155.966000 26.945000 476.913000
156.520000 26.946000 476.932000
157.109000 26.954000 477.058000
157.664000 26.955000 477.078000
158.204000 26.953000 477.056000
158.766000 26.956000 477.099000
159.352000 26.962000 477.212000
159.907000 26.963000 477.233000
160.441000 26.961000 477.193000
160.990000 26.961000 477.195000
161.657000 26.981000 477.547000
162.281000 26.994000 477.768000
162.775000 26.985000 477.607000
163.329000 26.986000 477.625000
163.873000 26.985000 477.612000
164.565000 27.008000 478.030000
165.112000 27.008000 478.024000
165.692000 27.013000 478.113000
63.297000 27.922000 484.364000
63.811000 27.904000 484.045000
64.291000 27.871000 483.474000
64.793000 27.849000 483.085000
65.290000 27.824000 482.656000
65.797000 27.804000 482.311000
66.300000 27.783000 481.937000
66.821000 27.769000 481.707000
67.324000 27.749000 481.351000
67.849000 27.737000 481.151000
68.363000 27.722000 480.880000
68.880000 27.707000 480.632000
69.389000 27.690000 480.337000
69.930000 27.686000 480.267000
70.430000 27.666000 479.913000
70.976000 27.664000 479.882000
71.481000 27.646000 479.572000
72.050000 27.653000 479.693000
72.549000 27.634000 479.351000
73.113000 27.638000 479.437000
73.621000 27.623000 479.163000
74.190000 27.630000 479.283000
74.699000 27.614000 479.021000
75.258000 27.618000 479.074000
75.781000 27.608000 478.904000
76.344000 27.612000 478.985000
76.882000 27.608000 478.911000
77.451000 27.615000 479.033000
78.000000 27.614000 479.021000
78.569000 27.621000 479.141000
79.116000 27.620000 479.119000
79.693000 27.630000 479.284000
80.252000 27.632000 479.332000
80.838000 27.645000 479.545000
81.405000 27.650000 479.639000
81.990000 27.662000 479.841000
82.571000 27.672000 480.013000
83.149000 27.681000 480.169000
83.745000 27.696000 480.430000
84.354000 27.714000 480.755000
84.942000 27.726000 480.958000
85.568000 27.750000 481.375000
86.183000 27.770000 481.718000
86.796000 27.789000 482.051000
87.438000 27.817000 482.539000
88.061000 27.839000 482.917000
88.727000 27.874000 483.525000
89.377000 27.904000 484.038000
90.070000 27.946000 484.779000
90.729000 27.978000 485.324000
96.066000 27.910000 484.139000
96.595000 27.902000 484.002000
97.098000 27.886000 483.739000
97.668000 27.891000 483.810000
98.159000 27.872000 483.491000
98.670000 27.860000 483.277000
99.153000 27.840000 482.926000
99.652000 27.824000 482.655000
100.181000 27.817000 482.536000
100.668000 27.799000 482.217000
101.193000 27.791000 482.076000
101.678000 27.772000 481.754000
102.219000 27.769000 481.696000
102.934000 27.812000 482.455000
103.604000 27.844000 482.997000
104.150000 27.841000 482.954000
104.708000 27.842000 482.970000
105.211000 27.828000 482.733000
105.696000 27.810000 482.418000
106.082000 27.766000 481.655000
106.476000 27.725000 480.936000
106.866000 27.683000 480.208000
107.297000 27.652000 479.670000
107.758000 27.629000 479.269000
108.287000 27.623000 479.177000
108.741000 27.599000 478.752000
109.255000 27.590000 478.595000
109.854000 27.602000 478.812000
110.456000 27.615000 479.039000
110.934000 27.597000 478.725000
111.407000 27.579000 478.398000
111.951000 27.577000 478.375000
112.649000 27.614000 479.005000
113.125000 27.596000 478.693000
113.560000 27.568000 478.210000
114.022000 27.547000 477.844000
114.574000 27.548000 477.861000
115.162000 27.557000 478.021000
115.730000 27.561000 478.102000
116.258000 27.556000 478.015000
116.740000 27.541000 477.742000
117.267000 27.536000 477.653000
117.842000 27.542000 477.762000
118.419000 27.549000 477.877000
118.878000 27.528000 477.515000
119.393000 27.520000 477.383000
119.908000 27.512000 477.250000
120.599000 27.545000 477.817000
121.108000 27.536000 477.659000
121.659000 27.537000 477.669000
122.147000 27.523000 477.434000
122.729000 27.531000 477.567000
123.177000 27.508000 477.178000
123.781000 27.521000 477.392000
124.379000 27.532000 477.585000
124.921000 27.530000 477.561000
125.377000 27.510000 477.208000
125.911000 27.507000 477.157000
126.510000 27.518000 477.349000
127.087000 27.524000 477.456000
127.563000 27.509000 477.185000
128.082000 27.502000 477.078000
128.642000 27.505000 477.123000
129.164000 27.500000 477.028000
129.727000 27.503000 477.084000
130.213000 27.490000 476.858000
130.833000 27.505000 477.122000
131.344000 27.497000 476.988000
131.978000 27.515000 477.300000
132.464000 27.502000 477.076000
133.005000 27.501000 477.053000
133.431000 27.476000 476.617000
134.076000 27.496000 476.964000
134.555000 27.482000 476.723000
135.163000 27.494000 476.937000
135.786000 27.509000 477.199000
136.372000 27.517000 477.334000
136.877000 27.508000 477.181000
137.368000 27.497000 476.987000
137.819000 27.478000 476.650000
138.366000 27.478000 476.649000
138.943000 27.484000 476.753000
139.533000 27.492000 476.897000
140.106000 27.497000 476.985000
140.616000 27.490000 476.857000
141.201000 27.497000 476.981000
141.724000 27.492000 476.899000
142.232000 27.484000 476.765000
142.715000 27.472000 476.550000
143.282000 27.476000 476.617000
143.979000 27.504000 477.113000
144.581000 27.515000 477.292000
145.020000 27.494000 476.932000
145.543000 27.489000 476.853000
146.121000 27.495000 476.950000
146.684000 27.498000 477.002000
147.233000 27.498000 477.007000
147.747000 27.492000 476.896000
148.270000 27.488000 476.819000
148.898000 27.502000 477.077000
149.453000 27.504000 477.099000
149.981000 27.500000 477.035000
150.532000 27.501000 477.044000
151.087000 27.502000 477.068000
151.774000 27.527000 477.507000
152.335000 27.529000 477.546000
152.855000 27.524000 477.457000
153.325000 27.510000 477.215000
153.924000 27.519000 477.373000
154.500000 27.524000 477.457000
155.083000 27.531000 477.565000
155.571000 27.520000 477.380000
156.197000 27.534000 477.617000
156.749000 27.534000 477.630000
157.356000 27.544000 477.807000
157.876000 27.539000 477.720000
158.427000 27.540000 477.727000
158.977000 27.540000 477.730000
159.531000 27.541000 477.747000
160.131000 27.550000 477.900000
160.683000 27.551000 477.912000
165.424000 27.609000 478.927000
166.061000 27.624000 479.178000
63.273000 28.468000 484.188000
63.798000 28.454000 483.946000
64.278000 28.421000 483.376000
64.772000 28.394000 482.925000
65.277000 28.372000 482.559000
65.780000 28.350000 482.184000
66.286000 28.330000 481.836000
66.806000 28.316000 481.598000
67.307000 28.294000 481.226000
67.832000 28.283000 481.028000
68.337000 28.263000 480.697000
68.864000 28.253000 480.522000
69.368000 28.233000 480.190000
69.908000 28.229000 480.117000
70.414000 28.210000 479.803000
70.964000 28.210000 479.802000
71.468000 28.192000 479.483000
72.029000 28.196000 479.554000
72.533000 28.178000 479.243000
73.090000 28.180000 479.292000
73.603000 28.166000 479.046000
74.172000 28.173000 479.166000
74.684000 28.159000 478.925000
75.239000 28.160000 478.953000
75.764000 28.151000 478.800000
76.319000 28.153000 478.830000
76.859000 28.150000 478.767000
77.419000 28.153000 478.832000
77.974000 28.155000 478.865000
78.549000 28.164000 479.018000
79.098000 28.164000 479.011000
79.672000 28.173000 479.157000
80.229000 28.175000 479.197000
80.825000 28.191000 479.465000
81.395000 28.198000 479.583000
81.966000 28.205000 479.704000
82.550000 28.216000 479.892000
83.130000 28.226000 480.060000
83.722000 28.240000 480.297000
84.330000 28.258000 480.617000
84.915000 28.269000 480.804000
85.543000 28.295000 481.232000
86.160000 28.316000 481.589000
86.776000 28.336000 481.941000
87.405000 28.361000 482.358000
88.017000 28.380000 482.678000
88.697000 28.420000 483.361000
89.340000 28.448000 483.837000
90.028000 28.490000 484.554000
90.678000 28.519000 485.053000
96.084000 28.471000 484.226000
96.603000 28.460000 484.042000
97.102000 28.443000 483.761000
97.673000 28.448000 483.835000
98.161000 28.428000 483.505000
98.680000 28.418000 483.326000
99.168000 28.399000 483.002000
99.658000 28.380000 482.687000
100.183000 28.372000 482.544000
100.680000 28.356000 482.274000
101.216000 28.351000 482.189000
101.706000 28.333000 481.886000
102.228000 28.324000 481.739000
102.905000 28.358000 482.319000
103.530000 28.378000 482.650000
104.051000 28.369000 482.497000
104.650000 28.381000 482.705000
105.128000 28.361000 482.356000
105.621000 28.344000 482.075000
106.044000 28.309000 481.481000
106.456000 28.272000 480.845000
106.857000 28.232000 480.169000
107.314000 28.207000 479.746000
107.779000 28.185000 479.363000
108.302000 28.178000 479.243000
108.776000 28.158000 478.907000
109.298000 28.151000 478.785000
109.823000 28.144000 478.675000
110.452000 28.165000 479.022000
110.935000 28.147000 478.730000
111.457000 28.141000 478.614000
111.978000 28.133000 478.489000
112.669000 28.169000 479.093000
113.154000 28.152000 478.816000
113.617000 28.131000 478.451000
114.084000 28.111000 478.104000
114.641000 28.113000 478.137000
115.213000 28.118000 478.233000
115.756000 28.117000 478.210000
116.275000 28.110000 478.086000
116.763000 28.095000 477.834000
117.307000 28.094000 477.815000
117.881000 28.100000 477.918000
118.441000 28.103000 477.966000
118.921000 28.086000 477.688000
119.475000 28.087000 477.710000
120.010000 28.084000 477.657000
120.660000 28.108000 478.059000
121.100000 28.083000 477.627000
121.631000 28.079000 477.560000
122.110000 28.063000 477.287000
122.779000 28.090000 477.761000
123.241000 28.071000 477.424000
123.893000 28.094000 477.826000
124.444000 28.095000 477.835000
124.969000 28.089000 477.744000
125.435000 28.071000 477.430000
125.986000 28.072000 477.440000
126.577000 28.081000 477.601000
127.119000 28.079000 477.575000
127.615000 28.068000 477.382000
128.164000 28.068000 477.385000
128.745000 28.075000 477.507000
129.226000 28.061000 477.258000
129.710000 28.047000 477.023000
130.195000 28.033000 476.790000
130.857000 28.058000 477.208000
131.448000 28.067000 477.367000
132.112000 28.092000 477.784000
132.564000 28.071000 477.437000
133.065000 28.061000 477.268000
133.543000 28.047000 477.017000
134.141000 28.057000 477.195000
134.686000 28.057000 477.184000
135.289000 28.068000 477.379000
135.887000 28.078000 477.556000
136.474000 28.086000 477.689000
136.945000 28.070000 477.421000
137.438000 28.059000 477.230000
137.903000 28.042000 476.940000
138.502000 28.053000 477.119000
139.067000 28.056000 477.177000
139.604000 28.054000 477.141000
140.194000 28.062000 477.282000
140.762000 28.066000 477.349000
141.342000 28.073000 477.459000
141.824000 28.059000 477.234000
142.275000 28.040000 476.910000
142.801000 28.036000 476.838000
143.499000 28.066000 477.339000
144.137000 28.083000 477.637000
144.684000 28.083000 477.630000
145.111000 28.059000 477.233000
145.680000 28.063000 477.302000
146.236000 28.065000 477.327000
146.755000 28.059000 477.231000
147.325000 28.064000 477.304000
147.892000 28.067000 477.366000
148.459000 28.071000 477.424000
149.075000 28.083000 477.641000
149.665000 28.091000 477.777000
150.207000 28.090000 477.754000
150.773000 28.093000 477.810000
151.309000 28.091000 477.771000
151.906000 28.100000 477.922000
152.427000 28.095000 477.834000
153.010000 28.101000 477.943000
153.562000 28.102000 477.951000
154.148000 28.108000 478.068000
154.690000 28.107000 478.045000
155.314000 28.121000 478.278000
155.814000 28.112000 478.127000
156.367000 28.113000 478.138000
156.900000 28.110000 478.090000
157.567000 28.131000 478.447000
63.253000 29.015000 484.034000
63.775000 28.999000 483.774000
64.264000 28.970000 483.276000
64.758000 28.942000 482.823000
65.264000 28.921000 482.462000
65.766000 28.898000 482.079000
66.268000 28.876000 481.707000
66.787000 28.861000 481.464000
67.286000 28.838000 481.072000
67.813000 28.827000 480.894000
68.317000 28.807000 480.556000
68.846000 28.797000 480.397000
69.349000 28.777000 480.063000
69.885000 28.771000 479.958000
70.395000 28.754000 479.678000
70.942000 28.752000 479.650000
71.450000 28.735000 479.360000
72.002000 28.736000 479.375000
72.510000 28.719000 479.090000
73.067000 28.722000 479.141000
73.586000 28.709000 478.933000
74.144000 28.712000 478.985000
74.673000 28.704000 478.851000
75.212000 28.700000 478.782000
75.750000 28.696000 478.711000
76.293000 28.693000 478.666000
76.834000 28.690000 478.616000
77.396000 28.695000 478.689000
77.950000 28.696000 478.719000
78.523000 28.705000 478.861000
79.077000 28.706000 478.885000
79.659000 28.718000 479.078000
80.214000 28.720000 479.106000
80.798000 28.732000 479.306000
81.375000 28.741000 479.465000
81.948000 28.749000 479.597000
82.527000 28.759000 479.758000
83.105000 28.768000 479.919000
83.702000 28.784000 480.180000
84.296000 28.799000 480.425000
84.895000 28.815000 480.690000
85.513000 28.837000 481.063000
86.112000 28.852000 481.321000
86.737000 28.877000 481.723000
87.376000 28.905000 482.200000
87.999000 28.928000 482.580000
88.663000 28.964000 483.175000
89.303000 28.991000 483.641000
89.987000 29.033000 484.330000
90.648000 29.066000 484.890000
96.101000 29.032000 484.315000
96.616000 29.019000 484.106000
97.105000 29.000000 483.775000
97.674000 29.003000 483.840000
98.164000 28.984000 483.517000
98.685000 28.974000 483.348000
99.181000 28.957000 483.062000
99.684000 28.942000 482.815000
100.200000 28.931000 482.626000
100.698000 28.915000 482.358000
101.239000 28.911000 482.298000
101.735000 28.894000 482.022000
102.233000 28.879000 481.761000
102.788000 28.879000 481.768000
103.430000 28.904000 482.185000
104.003000 28.910000 482.274000
104.557000 28.910000 482.274000
105.044000 28.891000 481.967000
105.517000 28.869000 481.601000
105.955000 28.838000 481.078000
106.415000 28.813000 480.660000
106.838000 28.778000 480.082000
107.328000 28.762000 479.808000
107.793000 28.739000 479.428000
108.334000 28.736000 479.384000
108.798000 28.713000 479.003000
109.326000 28.708000 478.906000
109.889000 28.711000 478.964000
110.496000 28.726000 479.210000
110.964000 28.705000 478.855000
111.487000 28.698000 478.739000
112.005000 28.690000 478.604000
112.712000 28.730000 479.276000
113.217000 28.718000 479.084000
113.690000 28.699000 478.760000
114.145000 28.675000 478.361000
114.715000 28.680000 478.448000
115.244000 28.675000 478.362000
115.789000 28.674000 478.344000
116.318000 28.669000 478.262000
116.805000 28.654000 478.008000
117.374000 28.659000 478.088000
117.927000 28.660000 478.106000
118.503000 28.666000 478.217000
119.014000 28.657000 478.062000
119.579000 28.661000 478.128000
120.110000 28.656000 478.052000
120.709000 28.669000 478.254000
121.155000 28.644000 477.844000
121.684000 28.639000 477.768000
122.142000 28.618000 477.412000
122.781000 28.639000 477.768000
123.327000 28.639000 477.756000
123.903000 28.645000 477.862000
124.447000 28.644000 477.846000
125.023000 28.650000 477.951000
125.545000 28.644000 477.849000
126.088000 28.643000 477.827000
126.623000 28.640000 477.773000
127.141000 28.633000 477.658000
127.678000 28.630000 477.618000
128.273000 28.641000 477.791000
128.867000 28.651000 477.956000
129.317000 28.629000 477.593000
129.765000 28.607000 477.224000
130.245000 28.592000 476.975000
130.998000 28.637000 477.723000
131.602000 28.649000 477.925000
132.158000 28.650000 477.950000
132.564000 28.620000 477.438000
133.119000 28.621000 477.462000
133.688000 28.625000 477.534000
134.352000 28.650000 477.947000
134.849000 28.639000 477.764000
135.455000 28.651000 477.965000
135.965000 28.643000 477.829000
136.539000 28.648000 477.917000
137.023000 28.635000 477.690000
137.556000 28.632000 477.637000
138.075000 28.626000 477.536000
138.636000 28.628000 477.580000
139.180000 28.627000 477.566000
139.691000 28.620000 477.436000
140.286000 28.629000 477.596000
140.884000 28.639000 477.763000
141.450000 28.643000 477.823000
141.891000 28.621000 477.461000
142.442000 28.622000 477.470000
143.017000 28.627000 477.558000
143.729000 28.660000 478.103000
144.221000 28.648000 477.914000
144.784000 28.651000 477.963000
145.266000 28.638000 477.743000
145.905000 28.656000 478.038000
146.346000 28.635000 477.686000
146.859000 28.628000 477.571000
147.470000 28.640000 477.775000
148.105000 28.656000 478.052000
148.664000 28.658000 478.083000
149.294000 28.674000 478.345000
149.845000 28.674000 478.349000
150.399000 28.675000 478.364000
150.927000 28.671000 478.298000
151.426000 28.662000 478.139000
152.000000 28.666000 478.217000
152.600000 28.676000 478.376000
153.271000 28.699000 478.757000
153.828000 28.700000 478.781000
154.296000 28.685000 478.525000
154.847000 28.685000 478.531000
155.506000 28.705000 478.868000
63.236000 29.563000 483.900000
63.755000 29.546000 483.621000
64.248000 29.517000 483.156000
64.740000 29.488000 482.685000
65.241000 29.464000 482.290000
65.757000 29.448000 482.015000
66.253000 29.422000 481.596000
66.775000 29.408000 481.373000
67.277000 29.386000 481.014000
67.804000 29.375000 480.828000
68.306000 29.354000 480.477000
68.828000 29.341000 480.271000
69.338000 29.323000 479.981000
69.875000 29.318000 479.889000
70.374000 29.296000 479.530000
70.925000 29.296000 479.538000
71.434000 29.279000 479.254000
71.984000 29.279000 479.254000
72.500000 29.265000 479.025000
73.056000 29.267000 479.067000
73.572000 29.254000 478.844000
74.131000 29.257000 478.903000
74.659000 29.249000 478.765000
75.200000 29.245000 478.706000
75.730000 29.238000 478.585000
76.282000 29.239000 478.601000
76.817000 29.233000 478.504000
77.368000 29.234000 478.518000
77.923000 29.236000 478.552000
78.500000 29.246000 478.721000
79.054000 29.248000 478.745000
79.645000 29.263000 478.994000
80.203000 29.266000 479.039000
80.778000 29.275000 479.191000
81.344000 29.280000 479.279000
81.925000 29.292000 479.463000
82.506000 29.302000 479.635000
83.079000 29.310000 479.766000
83.683000 29.329000 480.070000
84.277000 29.343000 480.312000
84.880000 29.361000 480.607000
85.486000 29.380000 480.911000
86.085000 29.396000 481.171000
86.720000 29.424000 481.631000
87.350000 29.450000 482.053000
87.968000 29.472000 482.409000
88.640000 29.511000 483.051000
89.275000 29.538000 483.490000
89.961000 29.581000 484.192000
90.625000 29.616000 484.770000
96.128000 29.596000 484.448000
96.635000 29.581000 484.204000
97.119000 29.559000 483.844000
97.673000 29.559000 483.834000
98.173000 29.542000 483.563000
98.707000 29.536000 483.456000
99.201000 29.518000 483.161000
99.705000 29.502000 482.912000
100.220000 29.491000 482.726000
100.721000 29.475000 482.468000
101.267000 29.473000 482.428000
101.760000 29.455000 482.141000
102.261000 29.440000 481.894000
102.767000 29.427000 481.673000
103.322000 29.427000 481.682000
103.919000 29.439000 481.883000
104.467000 29.438000 481.859000
104.963000 29.422000 481.598000
105.418000 29.395000 481.151000
105.890000 29.372000 480.782000
106.384000 29.356000 480.520000
106.830000 29.327000 480.045000
107.351000 29.319000 479.909000
107.826000 29.298000 479.575000
108.359000 29.294000 479.496000
108.833000 29.273000 479.156000
109.355000 29.265000 479.033000
109.911000 29.267000 479.061000
110.538000 29.287000 479.394000
111.015000 29.268000 479.076000
111.549000 29.264000 479.007000
112.045000 29.250000 478.776000
112.776000 29.297000 479.547000
113.285000 29.286000 479.372000
113.755000 29.265000 479.033000
114.212000 29.242000 478.643000
114.749000 29.238000 478.590000
115.274000 29.232000 478.487000
115.812000 29.229000 478.441000
116.348000 29.226000 478.384000
116.834000 29.210000 478.127000
117.378000 29.209000 478.106000
117.939000 29.212000 478.156000
118.587000 29.236000 478.553000
119.085000 29.223000 478.348000
119.616000 29.219000 478.272000
120.132000 29.211000 478.142000
120.752000 29.228000 478.422000
121.235000 29.212000 478.162000
121.792000 29.214000 478.191000
122.257000 29.194000 477.865000
122.838000 29.201000 477.988000
123.408000 29.207000 478.073000
123.981000 29.212000 478.162000
124.494000 29.204000 478.024000
125.087000 29.214000 478.193000
125.613000 29.209000 478.104000
126.129000 29.201000 477.979000
126.664000 29.198000 477.930000
127.220000 29.199000 477.955000
127.788000 29.204000 478.026000
128.313000 29.198000 477.938000
128.863000 29.199000 477.944000
129.381000 29.192000 477.829000
129.910000 29.187000 477.757000
130.466000 29.189000 477.783000
131.161000 29.222000 478.317000
131.633000 29.205000 478.039000
132.111000 29.189000 477.782000
132.527000 29.160000 477.303000
133.309000 29.211000 478.144000
133.827000 29.204000 478.032000
134.453000 29.221000 478.304000
134.917000 29.202000 478.004000
135.468000 29.203000 478.010000
136.001000 29.200000 477.956000
136.599000 29.210000 478.129000
137.106000 29.201000 477.983000
137.674000 29.205000 478.046000
138.215000 29.203000 478.020000
138.752000 29.201000 477.979000
139.292000 29.199000 477.949000
139.800000 29.191000 477.810000
140.377000 29.196000 477.905000
140.970000 29.206000 478.055000
141.595000 29.221000 478.313000
142.029000 29.198000 477.927000
142.699000 29.223000 478.332000
143.183000 29.209000 478.112000
143.846000 29.232000 478.491000
144.318000 29.217000 478.237000
144.881000 29.219000 478.283000
145.408000 29.215000 478.208000
146.081000 29.240000 478.615000
146.527000 29.219000 478.275000
147.125000 29.229000 478.436000
147.681000 29.230000 478.456000
148.330000 29.250000 478.779000
148.853000 29.244000 478.691000
149.423000 29.249000 478.758000
150.022000 29.258000 478.914000
150.554000 29.255000 478.857000
151.041000 29.242000 478.659000
151.560000 29.237000 478.562000
152.236000 29.261000 478.961000
152.861000 29.275000 479.194000
153.472000 29.287000 479.384000
153.980000 29.279000 479.254000
154.469000 29.267000 479.063000
63.224000 30.113000 483.809000
63.741000 30.094000 483.517000
64.234000 30.065000 483.045000
64.725000 30.036000 482.575000
65.225000 30.011000 482.172000
65.743000 29.995000 481.912000
66.239000 29.969000 481.494000
66.765000 29.956000 481.300000
67.267000 29.934000 480.939000
67.792000 29.922000 480.746000
68.297000 29.901000 480.414000
68.816000 29.887000 480.190000
69.330000 29.871000 479.930000
69.867000 29.865000 479.833000
70.367000 29.844000 479.486000
70.917000 29.843000 479.481000
71.420000 29.823000 479.159000
71.972000 29.824000 479.175000
72.495000 29.813000 478.997000
73.047000 29.814000 479.008000
73.565000 29.801000 478.799000
74.115000 29.801000 478.802000
74.654000 29.797000 478.732000
75.183000 29.788000 478.598000
75.709000 29.779000 478.447000
76.243000 29.773000 478.356000
76.795000 29.774000 478.368000
77.344000 29.774000 478.367000
77.893000 29.774000 478.365000
78.460000 29.781000 478.475000
79.037000 29.791000 478.639000
79.636000 29.809000 478.936000
80.195000 29.813000 478.991000
80.766000 29.821000 479.116000
81.331000 29.826000 479.206000
81.904000 29.834000 479.337000
82.482000 29.844000 479.501000
83.063000 29.855000 479.674000
83.667000 29.874000 479.980000
84.256000 29.888000 480.195000
84.861000 29.907000 480.499000
85.472000 29.927000 480.833000
86.072000 29.944000 481.097000
86.692000 29.967000 481.477000
87.323000 29.994000 481.907000
87.938000 30.015000 482.246000
88.619000 30.058000 482.939000
89.255000 30.086000 483.381000
89.940000 30.130000 484.080000
90.594000 30.162000 484.601000
91.277000 30.204000 485.276000
91.928000 30.235000 485.770000
92.780000 30.331000 487.316000
93.239000 30.298000 486.794000
93.669000 30.257000 486.124000
94.038000 30.196000 485.147000
94.600000 30.197000 485.171000
95.152000 30.196000 485.147000
95.685000 30.188000 485.023000
96.158000 30.162000 484.600000
96.660000 30.145000 484.329000
97.131000 30.119000 483.904000
97.702000 30.123000 483.981000
98.191000 30.103000 483.653000
98.738000 30.100000 483.611000
99.224000 30.079000 483.274000
99.730000 30.065000 483.037000
100.243000 30.052000 482.837000
100.753000 30.039000 482.620000
101.296000 30.035000 482.568000
101.780000 30.015000 482.235000
102.300000 30.005000 482.076000
102.794000 29.987000 481.798000
103.303000 29.975000 481.593000
103.842000 29.971000 481.526000
104.375000 29.965000 481.436000
104.880000 29.951000 481.218000
105.376000 29.935000 480.960000
105.882000 29.922000 480.746000
106.381000 29.907000 480.508000
106.857000 29.886000 480.170000
107.390000 29.881000 480.084000
107.860000 29.858000 479.723000
108.411000 29.858000 479.724000
108.874000 29.834000 479.339000
109.397000 29.827000 479.218000
109.906000 29.816000 479.039000
110.568000 29.846000 479.521000
111.078000 29.835000 479.348000
111.613000 29.831000 479.284000
112.119000 29.819000 479.093000
112.848000 29.866000 479.852000
113.350000 29.854000 479.647000
113.812000 29.830000 479.272000
114.279000 29.808000 478.921000
114.792000 29.799000 478.768000
115.303000 29.789000 478.609000
115.818000 29.780000 478.464000
116.353000 29.776000 478.404000
116.871000 29.768000 478.276000
117.426000 29.770000 478.301000
118.012000 29.779000 478.450000
118.649000 29.801000 478.803000
119.136000 29.785000 478.552000
119.664000 29.780000 478.467000
120.169000 29.769000 478.290000
120.797000 29.789000 478.602000
121.339000 29.787000 478.571000
121.885000 29.786000 478.557000
122.335000 29.762000 478.168000
122.953000 29.778000 478.437000
123.478000 29.772000 478.341000
124.049000 29.778000 478.425000
124.575000 29.772000 478.336000
125.157000 29.780000 478.460000
125.671000 29.771000 478.326000
126.229000 29.773000 478.359000
126.772000 29.772000 478.335000
127.330000 29.774000 478.370000
127.834000 29.764000 478.201000
128.334000 29.752000 478.017000
128.882000 29.752000 478.015000
129.480000 29.763000 478.196000
130.127000 29.786000 478.553000
130.665000 29.783000 478.513000
131.275000 29.797000 478.736000
131.688000 29.766000 478.238000
132.224000 29.763000 478.191000
132.717000 29.750000 477.989000
133.426000 29.786000 478.562000
133.965000 29.784000 478.525000
134.495000 29.779000 478.456000
134.952000 29.759000 478.128000
135.516000 29.762000 478.181000
136.110000 29.772000 478.339000
136.647000 29.770000 478.296000
137.200000 29.770000 478.308000
137.783000 29.778000 478.427000
138.376000 29.787000 478.578000
138.932000 29.788000 478.599000
139.462000 29.784000 478.534000
139.963000 29.774000 478.367000
140.543000 29.781000 478.473000
141.118000 29.786000 478.557000
141.740000 29.801000 478.802000
142.256000 29.794000 478.689000
142.859000 29.805000 478.868000
143.361000 29.795000 478.709000
144.025000 29.819000 479.089000
144.527000 29.809000 478.928000
145.112000 29.816000 479.044000
145.645000 29.813000 478.987000
146.285000 29.831000 479.283000
146.847000 29.833000 479.323000
147.386000 29.831000 479.284000
147.940000 29.832000 479.295000
148.494000 29.833000 479.308000
149.012000 29.826000 479.204000
149.593000 29.832000 479.301000
150.240000 29.851000 479.612000
150.725000 29.838000 479.402000
151.297000 29.843000 479.469000
151.855000 29.844000 479.495000
63.219000 30.666000 483.770000
63.729000 30.644000 483.428000
64.224000 30.615000 482.971000
64.719000 30.587000 482.528000
65.215000 30.560000 482.103000
65.730000 30.542000 481.820000
66.223000 30.514000 481.381000
66.749000 30.502000 481.188000
67.256000 30.481000 480.863000
67.785000 30.471000 480.698000
68.289000 30.450000 480.360000
68.808000 30.435000 480.132000
69.315000 30.416000 479.824000
69.859000 30.413000 479.780000
70.365000 30.393000 479.475000
70.906000 30.389000 479.405000
71.412000 30.370000 479.109000
71.962000 30.370000 479.109000
72.478000 30.356000 478.879000
73.042000 30.362000 478.976000
73.559000 30.348000 478.759000
74.119000 30.352000 478.826000
74.638000 30.340000 478.630000
75.174000 30.334000 478.540000
75.685000 30.319000 478.295000
76.220000 30.313000 478.211000
76.755000 30.308000 478.122000
77.318000 30.313000 478.205000
77.867000 30.313000 478.208000
78.437000 30.321000 478.333000
79.021000 30.334000 478.544000
79.634000 30.359000 478.929000
80.191000 30.361000 478.967000
80.763000 30.370000 479.101000
81.323000 30.374000 479.161000
81.896000 30.382000 479.290000
82.471000 30.391000 479.432000
83.056000 30.403000 479.631000
83.664000 30.424000 479.960000
84.245000 30.435000 480.134000
84.855000 30.456000 480.464000
85.462000 30.476000 480.778000
86.047000 30.488000 480.960000
86.675000 30.514000 481.379000
87.308000 30.542000 481.822000
87.923000 30.564000 482.161000
88.595000 30.605000 482.808000
89.239000 30.635000 483.290000
89.910000 30.675000 483.915000
90.556000 30.706000 484.401000
91.262000 30.756000 485.196000
91.931000 30.794000 485.789000
92.750000 30.881000 487.161000
93.200000 30.844000 486.588000
93.664000 30.813000 486.096000
94.036000 30.752000 485.138000
94.572000 30.746000 485.030000
95.155000 30.754000 485.162000
95.703000 30.751000 485.115000
96.187000 30.728000 484.748000
96.692000 30.711000 484.488000
97.172000 30.687000 484.108000
97.721000 30.685000 484.076000
98.217000 30.666000 483.780000
98.768000 30.665000 483.759000
99.257000 30.644000 483.435000
99.773000 30.632000 483.245000
100.283000 30.619000 483.025000
100.787000 30.603000 482.784000
101.316000 30.596000 482.666000
