225.395000 -0.422000 462.073000
225.964000 -0.422000 462.151000
226.629000 -0.423000 462.426000
227.086000 -0.422000 462.275000
227.807000 -0.423000 462.661000
228.289000 -0.423000 462.562000
229.049000 -0.423000 463.024000
229.589000 -0.423000 463.041000
230.337000 -0.424000 463.476000
230.907000 -0.424000 463.552000
231.680000 -0.424000 464.034000
232.365000 -0.424000 464.338000
233.065000 -0.425000 464.671000
233.931000 -0.425000 465.333000
234.726000 -0.426000 465.849000
107.987000 0.114000 487.761000
108.508000 0.114000 487.585000
109.075000 0.114000 487.619000
109.597000 0.114000 487.450000
110.118000 0.114000 487.280000
110.645000 0.114000 487.135000
111.163000 0.114000 486.952000
111.711000 0.114000 486.905000
112.275000 0.114000 486.926000
112.819000 0.114000 486.861000
113.355000 0.114000 486.764000
113.845000 0.114000 486.469000
114.417000 0.114000 486.526000
114.881000 0.114000 486.123000
115.496000 0.114000 486.363000
115.965000 0.114000 485.986000
116.503000 0.114000 485.905000
117.051000 0.114000 485.863000
117.602000 0.114000 485.835000
118.112000 0.114000 485.638000
118.650000 0.114000 485.560000
119.189000 0.114000 485.481000
119.738000 0.114000 485.449000
120.278000 0.114000 485.378000
120.775000 0.114000 485.133000
121.341000 0.114000 485.172000
121.839000 0.114000 484.936000
122.356000 0.114000 484.777000
122.887000 0.114000 484.679000
123.458000 0.114000 484.732000
123.944000 0.114000 484.457000
124.516000 0.114000 484.521000
125.006000 0.113000 484.263000
125.555000 0.113000 484.234000
126.086000 0.113000 484.140000
126.575000 0.113000 483.881000
127.178000 0.113000 484.063000
127.673000 0.113000 483.831000
128.189000 0.113000 483.682000
128.742000 0.113000 483.674000
129.268000 0.113000 483.564000
129.792000 0.113000 483.447000
130.321000 0.113000 483.349000
130.841000 0.113000 483.221000
131.353000 0.113000 483.063000
131.903000 0.113000 483.046000
132.407000 0.113000 482.862000
132.923000 0.113000 482.723000
133.427000 0.113000 482.539000
133.985000 0.113000 482.555000
134.560000 0.113000 482.628000
135.074000 0.113000 482.484000
135.628000 0.113000 482.487000
136.070000 0.113000 482.088000
136.608000 0.113000 482.034000
137.101000 0.113000 481.822000
137.700000 0.113000 481.980000
138.144000 0.113000 481.600000
138.731000 0.113000 481.718000
139.224000 0.113000 481.512000
139.808000 0.113000 481.619000
140.292000 0.113000 481.380000
140.831000 0.113000 481.334000
141.316000 0.113000 481.103000
141.839000 0.113000 481.001000
142.411000 0.113000 481.070000
142.900000 0.113000 480.856000
143.442000 0.113000 480.824000
143.913000 0.113000 480.550000
144.488000 0.113000 480.629000
144.935000 0.113000 480.282000
145.559000 0.113000 480.522000
145.977000 0.113000 480.081000
146.573000 0.113000 480.225000
147.019000 0.112000 479.881000
147.708000 0.113000 480.332000
148.084000 0.112000 479.762000
148.676000 0.112000 479.894000
149.122000 0.112000 479.556000
149.677000 0.112000 479.570000
150.166000 0.112000 479.374000
150.699000 0.112000 479.319000
151.200000 0.112000 479.164000
151.740000 0.112000 479.130000
152.230000 0.112000 478.941000
152.774000 0.112000 478.922000
153.295000 0.112000 478.831000
153.808000 0.112000 478.717000
154.363000 0.112000 478.732000
154.833000 0.112000 478.489000
155.390000 0.112000 478.512000
155.805000 0.112000 478.098000
156.444000 0.112000 478.374000
156.818000 0.112000 477.840000
157.509000 0.112000 478.270000
157.864000 0.112000 477.685000
158.514000 0.112000 477.991000
158.904000 0.112000 477.512000
159.530000 0.112000 477.744000
159.981000 0.112000 477.454000
160.522000 0.112000 477.434000
161.032000 0.112000 477.318000
161.515000 0.112000 477.125000
162.090000 0.112000 477.208000
162.516000 0.112000 476.848000
163.163000 0.112000 477.139000
163.546000 0.112000 476.660000
164.261000 0.112000 477.146000
164.579000 0.112000 476.479000
165.320000 0.112000 477.040000
165.624000 0.112000 476.340000
166.410000 0.112000 477.024000
166.775000 0.112000 476.501000
167.636000 0.112000 477.395000
167.949000 0.112000 476.729000
168.724000 0.112000 477.373000
169.248000 0.112000 477.304000
169.790000 0.112000 477.286000
170.410000 0.112000 477.489000
170.964000 0.112000 477.503000
171.455000 0.112000 477.345000
172.074000 0.112000 477.541000
172.540000 0.112000 477.313000
173.024000 0.112000 477.137000
173.600000 0.112000 477.214000
173.883000 0.112000 476.487000
174.504000 0.112000 476.691000
174.932000 0.112000 476.364000
175.724000 0.112000 477.031000
176.112000 0.112000 476.597000
176.721000 0.112000 476.763000
177.196000 0.112000 476.570000
177.793000 0.112000 476.704000
178.338000 0.112000 476.696000
178.730000 0.112000 476.282000
178.992000 0.111000 475.525000
179.208000 0.111000 474.650000
179.597000 0.111000 474.240000
180.322000 0.111000 474.716000
185.588000 0.111000 474.242000
186.203000 0.111000 474.422000
186.745000 0.111000 474.414000
187.359000 0.111000 474.591000
187.918000 0.111000 474.626000
188.461000 0.111000 474.620000
189.051000 0.111000 474.732000
189.557000 0.111000 474.634000
190.241000 0.111000 474.982000
190.743000 0.111000 474.873000
191.375000 0.111000 475.090000
191.932000 0.111000 475.117000
192.476000 0.111000 475.114000
193.027000 0.111000 475.127000
193.587000 0.111000 475.164000
194.161000 0.111000 475.232000
194.809000 0.111000 475.482000
195.400000 0.111000 475.590000
195.952000 0.111000 475.606000
196.524000 0.111000 475.668000
197.043000 0.111000 475.603000
197.647000 0.111000 475.743000
198.239000 0.112000 475.852000
198.825000 0.112000 475.947000
199.364000 0.112000 475.928000
199.991000 0.112000 476.121000
200.614000 0.112000 476.302000
204.591000 0.112000 476.647000
204.907000 0.112000 476.109000
205.120000 0.111000 475.338000
205.377000 0.111000 474.670000
206.071000 0.111000 472.512000
206.393000 0.111000 472.006000
206.687000 0.110000 471.441000
207.014000 0.110000 470.953000
207.308000 0.110000 470.393000
207.646000 0.110000 469.937000
207.979000 0.110000 469.470000
208.280000 0.110000 468.934000
208.694000 0.110000 468.655000
209.015000 0.110000 468.168000
209.394000 0.110000 467.815000
209.733000 0.110000 467.371000
210.132000 0.109000 467.066000
210.441000 0.109000 466.562000
210.902000 0.109000 466.396000
211.233000 0.109000 465.946000
211.671000 0.109000 465.731000
212.056000 0.109000 465.403000
212.461000 0.109000 465.120000
212.840000 0.109000 464.782000
213.285000 0.109000 464.589000
213.730000 0.109000 464.395000
214.105000 0.109000 464.053000
214.624000 0.109000 464.023000
214.939000 0.109000 463.553000
215.457000 0.109000 463.523000
215.840000 0.109000 463.203000
216.348000 0.109000 463.151000
216.750000 0.108000 462.875000
217.225000 0.108000 462.754000
217.633000 0.108000 462.492000
218.167000 0.108000 462.498000
218.586000 0.108000 462.261000
219.102000 0.108000 462.230000
219.608000 0.108000 462.178000
220.060000 0.108000 462.012000
220.576000 0.108000 461.981000
221.042000 0.108000 461.848000
221.627000 0.108000 461.960000
222.095000 0.108000 461.831000
222.655000 0.108000 461.892000
223.129000 0.108000 461.775000
223.703000 0.108000 461.866000
224.231000 0.108000 461.862000
224.789000 0.108000 461.919000
225.361000 0.108000 462.003000
225.912000 0.108000 462.045000
226.576000 0.108000 462.319000
227.014000 0.108000 462.129000
227.741000 0.108000 462.528000
228.209000 0.108000 462.399000
228.978000 0.108000 462.881000
229.544000 0.108000 462.950000
230.243000 0.109000 463.288000
230.850000 0.109000 463.437000
231.617000 0.109000 463.907000
232.274000 0.109000 464.157000
232.969000 0.109000 464.480000
233.814000 0.109000 465.099000
234.646000 0.109000 465.692000
107.952000 0.674000 487.605000
108.465000 0.674000 487.395000
108.996000 0.674000 487.264000
109.536000 0.674000 487.178000
110.045000 0.673000 486.955000
110.589000 0.673000 486.889000
111.073000 0.673000 486.562000
111.612000 0.673000 486.476000
112.193000 0.673000 486.570000
112.729000 0.673000 486.474000
113.302000 0.673000 486.536000
113.786000 0.672000 486.214000
114.361000 0.672000 486.285000
114.842000 0.672000 485.958000
115.428000 0.672000 486.079000
115.923000 0.672000 485.811000
116.463000 0.672000 485.737000
116.967000 0.671000 485.514000
117.536000 0.671000 485.561000
118.056000 0.671000 485.407000
118.581000 0.671000 485.274000
119.117000 0.671000 485.188000
119.654000 0.671000 485.107000
120.201000 0.671000 485.067000
120.707000 0.670000 484.864000
121.256000 0.670000 484.829000
121.796000 0.670000 484.763000
122.300000 0.670000 484.558000
122.833000 0.670000 484.465000
123.395000 0.670000 484.486000
123.893000 0.670000 484.257000
124.449000 0.670000 484.256000
124.951000 0.669000 484.048000
125.467000 0.669000 483.894000
126.036000 0.669000 483.945000
126.518000 0.669000 483.666000
127.093000 0.669000 483.738000
127.593000 0.669000 483.530000
128.111000 0.668000 483.387000
128.685000 0.668000 483.459000
129.185000 0.668000 483.252000
129.715000 0.668000 483.161000
130.244000 0.668000 483.064000
130.771000 0.668000 482.961000
131.275000 0.668000 482.776000
131.849000 0.668000 482.849000
132.321000 0.667000 482.549000
132.859000 0.667000 482.490000
133.378000 0.667000 482.361000
133.901000 0.667000 482.253000
134.479000 0.667000 482.338000
134.979000 0.667000 482.147000
135.540000 0.667000 482.172000
135.993000 0.666000 481.816000
136.544000 0.666000 481.809000
137.034000 0.666000 481.587000
137.628000 0.666000 481.730000
138.083000 0.666000 481.387000
138.670000 0.666000 481.506000
139.153000 0.665000 481.265000
139.716000 0.665000 481.299000
140.221000 0.665000 481.136000
140.785000 0.665000 481.177000
141.250000 0.665000 480.878000
141.743000 0.665000 480.677000
142.318000 0.665000 480.756000
142.860000 0.665000 480.722000
143.374000 0.664000 480.594000
143.830000 0.664000 480.273000
144.419000 0.664000 480.399000
144.853000 0.664000 480.011000
145.474000 0.664000 480.239000
145.897000 0.663000 479.819000
146.520000 0.664000 480.054000
146.917000 0.663000 479.551000
147.578000 0.664000 479.909000
147.981000 0.663000 479.430000
148.590000 0.663000 479.617000
149.024000 0.663000 479.241000
149.610000 0.663000 479.356000
150.068000 0.662000 479.060000
150.647000 0.662000 479.154000
151.095000 0.662000 478.828000
151.675000 0.662000 478.924000
152.120000 0.662000 478.596000
152.709000 0.662000 478.718000
153.190000 0.662000 478.505000
153.749000 0.662000 478.534000
154.259000 0.661000 478.413000
154.764000 0.661000 478.273000
155.318000 0.661000 478.290000
155.716000 0.661000 477.824000
156.384000 0.661000 478.190000
156.721000 0.660000 477.543000
157.418000 0.661000 477.996000
157.775000 0.660000 477.414000
158.440000 0.661000 477.767000
158.833000 0.660000 477.298000
159.463000 0.660000 477.546000
159.912000 0.660000 477.248000
160.456000 0.660000 477.235000
160.958000 0.660000 477.100000
161.446000 0.659000 476.923000
162.078000 0.660000 477.170000
162.531000 0.659000 476.892000
163.222000 0.660000 477.312000
163.693000 0.660000 477.088000
164.431000 0.660000 477.641000
164.846000 0.660000 477.253000
165.602000 0.661000 477.854000
165.972000 0.660000 477.341000
166.712000 0.661000 477.889000
167.105000 0.660000 477.445000
167.804000 0.661000 477.876000
168.206000 0.660000 477.459000
168.853000 0.661000 477.736000
169.345000 0.660000 477.577000
169.798000 0.660000 477.309000
170.359000 0.660000 477.346000
170.858000 0.660000 477.208000
171.366000 0.660000 477.098000
171.998000 0.660000 477.331000
172.450000 0.660000 477.065000
173.088000 0.660000 477.314000
173.576000 0.660000 477.148000
173.974000 0.659000 476.738000
174.440000 0.659000 476.515000
174.939000 0.659000 476.385000
175.453000 0.659000 476.294000
175.936000 0.658000 476.121000
176.459000 0.658000 476.056000
177.096000 0.659000 476.301000
177.654000 0.659000 476.330000
178.156000 0.658000 476.209000
178.490000 0.658000 475.643000
178.799000 0.657000 475.012000
179.152000 0.656000 474.504000
179.641000 0.656000 474.355000
180.242000 0.656000 474.505000
180.740000 0.656000 474.380000
185.511000 0.655000 474.044000
185.959000 0.655000 473.799000
186.503000 0.655000 473.799000
187.057000 0.655000 473.826000
187.696000 0.655000 474.064000
188.229000 0.655000 474.035000
188.835000 0.656000 474.191000
189.302000 0.655000 473.996000
189.985000 0.656000 474.343000
190.469000 0.656000 474.192000
191.135000 0.656000 474.493000
191.659000 0.656000 474.443000
192.289000 0.656000 474.652000
192.785000 0.656000 474.533000
193.369000 0.656000 474.628000
193.907000 0.656000 474.612000
194.520000 0.656000 474.776000
195.157000 0.657000 475.001000
195.698000 0.657000 474.990000
196.253000 0.657000 475.012000
196.775000 0.657000 474.955000
197.418000 0.657000 475.192000
197.946000 0.657000 475.148000
198.555000 0.657000 475.301000
199.035000 0.657000 475.143000
199.716000 0.657000 475.466000
200.326000 0.658000 475.617000
204.374000 0.658000 476.142000
204.755000 0.658000 475.756000
205.007000 0.657000 475.075000
205.314000 0.656000 474.524000
206.028000 0.653000 472.412000
206.331000 0.652000 471.865000
206.616000 0.652000 471.279000
206.946000 0.651000 470.799000
207.248000 0.650000 470.258000
207.592000 0.650000 469.814000
207.922000 0.649000 469.342000
208.242000 0.648000 468.849000
208.645000 0.648000 468.544000
208.956000 0.647000 468.035000
209.343000 0.647000 467.699000
209.684000 0.646000 467.263000
210.088000 0.646000 466.968000
210.406000 0.645000 466.484000
210.833000 0.645000 466.244000
211.200000 0.644000 465.873000
211.622000 0.644000 465.625000
211.996000 0.643000 465.272000
212.416000 0.643000 465.021000
212.803000 0.643000 464.701000
213.247000 0.642000 464.506000
213.685000 0.642000 464.297000
214.048000 0.641000 463.929000
214.558000 0.641000 463.881000
214.892000 0.641000 463.452000
215.393000 0.641000 463.385000
215.809000 0.640000 463.136000
216.306000 0.640000 463.060000
216.704000 0.640000 462.776000
217.184000 0.640000 462.667000
217.613000 0.639000 462.448000
218.132000 0.639000 462.423000
218.543000 0.639000 462.170000
219.053000 0.639000 462.127000
219.562000 0.639000 462.080000
220.013000 0.639000 461.913000
220.546000 0.639000 461.919000
220.968000 0.638000 461.692000
221.580000 0.639000 461.863000
222.036000 0.638000 461.709000
222.623000 0.639000 461.826000
223.099000 0.638000 461.714000
223.638000 0.638000 461.731000
224.158000 0.638000 461.710000
224.732000 0.639000 461.801000
225.315000 0.639000 461.910000
225.829000 0.639000 461.876000
226.460000 0.639000 462.081000
226.966000 0.639000 462.031000
227.691000 0.639000 462.427000
228.134000 0.639000 462.248000
228.860000 0.640000 462.643000
229.471000 0.640000 462.802000
230.165000 0.640000 463.131000
230.775000 0.641000 463.288000
231.533000 0.641000 463.739000
232.175000 0.641000 463.958000
232.926000 0.642000 464.393000
233.740000 0.643000 464.952000
234.519000 0.644000 465.438000
235.407000 0.644000 466.138000
236.192000 0.645000 466.632000
109.973000 1.232000 486.637000
110.539000 1.232000 486.667000
111.037000 1.231000 486.404000
111.574000 1.231000 486.310000
112.172000 1.231000 486.478000
112.701000 1.231000 486.354000
113.275000 1.231000 486.420000
113.752000 1.230000 486.072000
114.337000 1.230000 486.183000
114.820000 1.230000 485.864000
115.379000 1.230000 485.871000
115.897000 1.229000 485.704000
116.419000 1.229000 485.553000
116.919000 1.228000 485.315000
117.497000 1.228000 485.400000
118.026000 1.228000 485.283000
118.545000 1.228000 485.129000
119.074000 1.228000 485.013000
119.600000 1.227000 484.890000
120.153000 1.227000 484.873000
120.662000 1.227000 484.681000
121.193000 1.226000 484.580000
121.751000 1.226000 484.584000
122.253000 1.226000 484.371000
122.796000 1.226000 484.318000
123.362000 1.226000 484.355000
123.861000 1.225000 484.135000
124.407000 1.225000 484.096000
124.928000 1.225000 483.961000
125.418000 1.224000 483.708000
125.988000 1.224000 483.760000
126.472000 1.224000 483.490000
127.032000 1.224000 483.508000
127.556000 1.223000 483.389000
128.056000 1.223000 483.181000
128.633000 1.223000 483.265000
129.138000 1.223000 483.080000
129.669000 1.222000 482.990000
130.197000 1.222000 482.892000
130.730000 1.222000 482.812000
131.210000 1.221000 482.540000
131.795000 1.222000 482.651000
132.285000 1.221000 482.417000
132.812000 1.221000 482.319000
133.356000 1.221000 482.285000
133.851000 1.220000 482.074000
134.434000 1.220000 482.177000
134.925000 1.220000 481.952000
135.468000 1.220000 481.917000
135.937000 1.219000 481.619000
136.491000 1.219000 481.623000
136.997000 1.219000 481.454000
137.588000 1.219000 481.590000
138.056000 1.218000 481.294000
138.627000 1.218000 481.356000
139.110000 1.218000 481.116000
139.675000 1.218000 481.158000
140.132000 1.217000 480.832000
140.709000 1.217000 480.917000
141.203000 1.217000 480.716000
141.698000 1.216000 480.526000
142.243000 1.216000 480.501000
142.795000 1.216000 480.502000
143.320000 1.216000 480.411000
143.811000 1.215000 480.211000
144.362000 1.215000 480.210000
144.847000 1.215000 479.989000
145.383000 1.215000 479.939000
145.823000 1.214000 479.575000
146.467000 1.215000 479.881000
146.866000 1.213000 479.385000
147.502000 1.214000 479.661000
147.896000 1.213000 479.153000
148.544000 1.213000 479.470000
148.946000 1.212000 478.992000
149.566000 1.213000 479.217000
149.984000 1.212000 478.793000
150.605000 1.212000 479.020000
151.002000 1.211000 478.535000
151.628000 1.212000 478.777000
152.042000 1.211000 478.350000
152.673000 1.211000 478.606000
153.121000 1.211000 478.289000
153.689000 1.211000 478.348000
154.202000 1.210000 478.234000
154.658000 1.210000 477.946000
155.275000 1.210000 478.157000
155.648000 1.209000 477.616000
156.330000 1.210000 478.025000
156.647000 1.208000 477.317000
157.353000 1.209000 477.799000
157.688000 1.208000 477.152000
158.383000 1.209000 477.595000
158.775000 1.208000 477.124000
159.408000 1.208000 477.379000
159.886000 1.208000 477.171000
160.492000 1.208000 477.343000
161.040000 1.208000 477.343000
161.625000 1.208000 477.451000
162.278000 1.209000 477.760000
162.771000 1.209000 477.598000
163.499000 1.210000 478.122000
164.021000 1.210000 478.044000
164.629000 1.210000 478.215000
165.220000 1.211000 478.336000
165.658000 1.210000 478.016000
166.313000 1.211000 478.322000
166.810000 1.210000 478.171000
167.219000 1.209000 477.770000
167.786000 1.209000 477.824000
168.216000 1.208000 477.486000
168.833000 1.209000 477.680000
169.297000 1.208000 477.441000
169.812000 1.208000 477.350000
170.323000 1.208000 477.244000
170.836000 1.208000 477.147000
171.432000 1.208000 477.281000
171.959000 1.208000 477.223000
172.470000 1.208000 477.119000
172.941000 1.207000 476.909000
173.311000 1.206000 476.421000
173.737000 1.205000 476.089000
174.033000 1.203000 475.404000
174.459000 1.202000 475.077000
174.951000 1.202000 474.933000
175.630000 1.203000 475.293000
176.177000 1.203000 475.296000
176.811000 1.204000 475.535000
177.334000 1.203000 475.471000
177.838000 1.203000 475.361000
178.212000 1.202000 474.902000
178.620000 1.201000 474.538000
179.145000 1.201000 474.484000
179.669000 1.201000 474.431000
180.151000 1.200000 474.266000
180.716000 1.200000 474.319000
186.863000 1.198000 473.335000
187.482000 1.198000 473.524000
188.018000 1.198000 473.504000
188.608000 1.199000 473.620000
189.120000 1.198000 473.542000
189.719000 1.199000 473.678000
190.251000 1.199000 473.650000
190.906000 1.199000 473.925000
191.449000 1.199000 473.923000
192.119000 1.200000 474.233000
192.561000 1.200000 473.979000
193.142000 1.200000 474.071000
193.676000 1.200000 474.046000
194.292000 1.200000 474.220000
194.905000 1.201000 474.387000
195.462000 1.201000 474.416000
196.032000 1.201000 474.477000
196.581000 1.201000 474.489000
197.175000 1.201000 474.605000
197.661000 1.201000 474.464000
198.329000 1.202000 474.759000
198.837000 1.201000 474.671000
199.488000 1.202000 474.922000
200.020000 1.202000 474.892000
200.724000 1.203000 475.266000
201.263000 1.203000 475.251000
201.687000 1.202000 474.966000
201.995000 1.201000 474.406000
203.167000 1.204000 475.877000
204.221000 1.207000 477.061000
204.401000 1.205000 476.206000
204.749000 1.204000 475.744000
204.933000 1.202000 474.904000
205.253000 1.201000 474.382000
205.977000 1.195000 472.296000
206.293000 1.194000 471.778000
206.582000 1.193000 471.202000
206.900000 1.191000 470.694000
207.219000 1.190000 470.191000
207.561000 1.189000 469.744000
207.891000 1.188000 469.271000
208.198000 1.186000 468.749000
208.599000 1.186000 468.441000
208.934000 1.184000 467.986000
209.305000 1.183000 467.615000
209.626000 1.182000 467.134000
210.057000 1.182000 466.899000
210.379000 1.180000 466.424000
210.805000 1.180000 466.183000
211.176000 1.179000 465.819000
211.567000 1.178000 465.504000
211.954000 1.177000 465.180000
212.373000 1.177000 464.928000
212.777000 1.176000 464.644000
213.212000 1.175000 464.429000
213.646000 1.175000 464.215000
213.990000 1.174000 463.804000
214.537000 1.174000 463.834000
214.891000 1.173000 463.449000
215.392000 1.173000 463.383000
215.792000 1.172000 463.099000
216.262000 1.172000 462.967000
216.681000 1.171000 462.727000
217.145000 1.171000 462.582000
217.582000 1.170000 462.383000
218.065000 1.170000 462.281000
218.499000 1.169000 462.076000
218.963000 1.169000 461.937000
219.498000 1.169000 461.945000
219.933000 1.169000 461.746000
220.523000 1.169000 461.871000
220.923000 1.168000 461.599000
221.558000 1.169000 461.816000
222.002000 1.168000 461.639000
222.578000 1.169000 461.733000
223.060000 1.168000 461.632000
223.603000 1.168000 461.661000
224.131000 1.168000 461.656000
224.666000 1.168000 461.665000
225.262000 1.169000 461.800000
225.772000 1.169000 461.760000
226.396000 1.169000 461.951000
226.910000 1.169000 461.917000
227.653000 1.170000 462.348000
228.131000 1.170000 462.242000
228.820000 1.171000 462.561000
229.415000 1.171000 462.690000
230.099000 1.172000 462.998000
230.691000 1.172000 463.119000
231.474000 1.173000 463.621000
232.124000 1.174000 463.858000
232.891000 1.175000 464.325000
233.657000 1.176000 464.787000
234.356000 1.177000 465.114000
235.374000 1.180000 466.074000
109.933000 1.790000 486.462000
110.485000 1.790000 486.430000
110.984000 1.789000 486.168000
111.492000 1.788000 485.949000
112.109000 1.789000 486.206000
112.623000 1.788000 486.015000
113.188000 1.788000 486.045000
113.699000 1.788000 485.846000
114.273000 1.788000 485.912000
114.755000 1.787000 485.589000
115.297000 1.786000 485.523000
115.837000 1.786000 485.452000
116.342000 1.785000 485.235000
116.863000 1.785000 485.083000
117.440000 1.785000 485.164000
117.967000 1.785000 485.041000
118.493000 1.784000 484.914000
119.016000 1.784000 484.778000
119.541000 1.783000 484.651000
120.079000 1.783000 484.576000
120.584000 1.782000 484.370000
121.101000 1.781000 484.210000
121.680000 1.782000 484.302000
122.193000 1.781000 484.133000
122.731000 1.781000 484.062000
123.279000 1.781000 484.029000
123.810000 1.780000 483.935000
124.322000 1.780000 483.766000
124.881000 1.780000 483.776000
125.350000 1.779000 483.444000
125.916000 1.779000 483.485000
126.421000 1.778000 483.293000
126.961000 1.778000 483.236000
127.507000 1.778000 483.203000
127.986000 1.777000 482.916000
128.559000 1.777000 482.985000
129.073000 1.776000 482.835000
129.603000 1.776000 482.745000
130.117000 1.776000 482.593000
130.675000 1.776000 482.607000
131.145000 1.774000 482.301000
131.703000 1.775000 482.316000
132.239000 1.774000 482.250000
132.768000 1.774000 482.161000
133.312000 1.774000 482.123000
133.794000 1.773000 481.866000
134.358000 1.773000 481.905000
134.828000 1.772000 481.607000
135.374000 1.772000 481.583000
135.859000 1.771000 481.342000
136.436000 1.771000 481.426000
136.923000 1.770000 481.196000
137.519000 1.771000 481.348000
137.988000 1.770000 481.056000
138.560000 1.770000 481.125000
139.044000 1.769000 480.888000
139.616000 1.770000 480.955000
140.049000 1.768000 480.548000
140.639000 1.768000 480.676000
141.111000 1.767000 480.406000
141.628000 1.767000 480.289000
142.166000 1.767000 480.240000
142.702000 1.767000 480.190000
143.228000 1.766000 480.106000
143.761000 1.766000 480.045000
144.265000 1.766000 479.887000
144.816000 1.766000 479.888000
145.313000 1.765000 479.708000
145.753000 1.764000 479.343000
146.399000 1.765000 479.656000
146.769000 1.763000 479.067000
147.443000 1.764000 479.469000
147.795000 1.762000 478.826000
148.479000 1.763000 479.260000
148.839000 1.761000 478.647000
149.504000 1.762000 479.019000
149.852000 1.760000 478.371000
150.549000 1.762000 478.842000
150.917000 1.760000 478.266000
151.570000 1.761000 478.594000
151.998000 1.759000 478.210000
152.604000 1.760000 478.391000
153.069000 1.759000 478.125000
153.564000 1.758000 477.957000
154.128000 1.759000 478.004000
154.553000 1.757000 477.621000
155.212000 1.759000 477.963000
155.574000 1.756000 477.388000
156.270000 1.758000 477.840000
156.578000 1.755000 477.107000
157.418000 1.759000 477.994000
157.854000 1.757000 477.655000
158.586000 1.759000 478.206000
159.034000 1.758000 477.904000
159.677000 1.759000 478.185000
160.195000 1.759000 478.094000
160.788000 1.759000 478.222000
161.342000 1.760000 478.238000
161.963000 1.760000 478.449000
162.573000 1.761000 478.628000
162.977000 1.759000 478.202000
163.617000 1.760000 478.466000
164.084000 1.759000 478.227000
164.617000 1.759000 478.179000
165.188000 1.760000 478.244000
165.606000 1.758000 477.866000
166.256000 1.759000 478.156000
166.620000 1.757000 477.627000
167.074000 1.756000 477.357000
167.639000 1.756000 477.405000
168.176000 1.756000 477.373000
168.727000 1.756000 477.380000
169.114000 1.755000 476.925000
169.670000 1.755000 476.951000
170.254000 1.755000 477.052000
170.793000 1.755000 477.026000
171.397000 1.756000 477.183000
171.843000 1.755000 476.901000
172.274000 1.753000 476.577000
172.622000 1.751000 476.028000
173.057000 1.750000 475.721000
173.413000 1.748000 475.200000
173.905000 1.748000 475.055000
174.183000 1.745000 474.325000
174.784000 1.746000 474.477000
175.351000 1.746000 474.538000
176.029000 1.747000 474.896000
176.450000 1.746000 474.563000
186.671000 1.740000 472.846000
187.290000 1.740000 473.039000
187.805000 1.740000 472.968000
188.430000 1.741000 473.174000
188.908000 1.740000 473.011000
189.548000 1.741000 473.253000
190.052000 1.741000 473.155000
190.720000 1.742000 473.464000
191.267000 1.742000 473.473000
191.878000 1.743000 473.638000
192.386000 1.742000 473.551000
192.928000 1.742000 473.544000
193.487000 1.742000 473.583000
194.090000 1.743000 473.727000
194.685000 1.743000 473.852000
195.257000 1.744000 473.918000
195.863000 1.744000 474.068000
196.369000 1.744000 473.977000
196.981000 1.744000 474.138000
197.466000 1.744000 473.997000
198.184000 1.745000 474.412000
198.654000 1.745000 474.233000
199.279000 1.745000 474.424000
199.763000 1.745000 474.281000
200.485000 1.747000 474.701000
201.060000 1.747000 474.772000
201.525000 1.746000 474.583000
201.907000 1.745000 474.201000
203.006000 1.749000 475.499000
204.062000 1.754000 476.690000
204.438000 1.752000 476.292000
204.602000 1.749000 475.402000
204.833000 1.746000 474.672000
205.218000 1.745000 474.302000
205.933000 1.737000 472.196000
206.254000 1.735000 471.689000
206.547000 1.733000 471.121000
206.865000 1.731000 470.615000
207.186000 1.730000 470.117000
207.509000 1.728000 469.625000
207.849000 1.726000 469.177000
208.160000 1.724000 468.665000
208.548000 1.723000 468.326000
208.904000 1.722000 467.920000
209.273000 1.720000 467.544000
209.593000 1.718000 467.061000
210.034000 1.718000 466.848000
210.332000 1.716000 466.320000
210.786000 1.715000 466.141000
211.151000 1.714000 465.765000
211.532000 1.712000 465.426000
211.911000 1.711000 465.084000
212.326000 1.710000 464.824000
212.736000 1.709000 464.554000
213.148000 1.708000 464.289000
213.619000 1.708000 464.155000
213.975000 1.706000 463.771000
214.508000 1.706000 463.771000
214.881000 1.705000 463.429000
215.387000 1.705000 463.372000
215.781000 1.704000 463.076000
216.246000 1.703000 462.932000
216.656000 1.702000 462.673000
217.098000 1.702000 462.483000
217.520000 1.701000 462.252000
217.996000 1.700000 462.136000
218.457000 1.700000 461.989000
218.910000 1.699000 461.823000
219.454000 1.699000 461.853000
219.901000 1.699000 461.678000
220.505000 1.699000 461.833000
220.924000 1.698000 461.600000
221.541000 1.699000 461.781000
221.976000 1.698000 461.583000
222.548000 1.699000 461.671000
223.033000 1.698000 461.577000
223.569000 1.698000 461.589000
224.130000 1.698000 461.653000
224.650000 1.698000 461.633000
225.234000 1.699000 461.743000
225.749000 1.699000 461.712000
226.392000 1.700000 461.943000
226.890000 1.699000 461.877000
227.603000 1.701000 462.248000
228.109000 1.701000 462.198000
228.800000 1.702000 462.520000
229.383000 1.702000 462.626000
230.065000 1.703000 462.928000
230.671000 1.704000 463.079000
231.445000 1.706000 463.564000
232.070000 1.706000 463.749000
232.803000 1.708000 464.148000
233.594000 1.710000 464.661000
234.315000 1.711000 465.033000
235.242000 1.714000 465.813000
109.914000 2.348000 486.376000
110.461000 2.348000 486.326000
110.972000 2.347000 486.116000
111.463000 2.345000 485.822000
112.068000 2.346000 486.030000
112.580000 2.345000 485.828000
113.147000 2.345000 485.868000
113.653000 2.344000 485.647000
114.223000 2.345000 485.699000
114.714000 2.343000 485.416000
115.248000 2.343000 485.319000
115.766000 2.342000 485.154000
116.309000 2.342000 485.097000
116.832000 2.341000 484.954000
117.405000 2.341000 485.020000
117.934000 2.341000 484.906000
118.460000 2.340000 484.780000
118.974000 2.339000 484.605000
119.500000 2.339000 484.484000
120.025000 2.338000 484.356000
120.540000 2.337000 484.192000
121.034000 2.336000 483.945000
121.613000 2.337000 484.038000
122.142000 2.336000 483.932000
122.689000 2.336000 483.896000
123.237000 2.336000 483.868000
123.777000 2.336000 483.807000
124.286000 2.335000 483.623000
124.832000 2.334000 483.586000
125.296000 2.333000 483.237000
125.838000 2.333000 483.184000
126.377000 2.332000 483.124000
126.907000 2.332000 483.033000
127.464000 2.332000 483.040000
127.944000 2.330000 482.760000
128.507000 2.331000 482.792000
129.004000 2.330000 482.578000
129.547000 2.329000 482.534000
130.050000 2.328000 482.346000
130.625000 2.329000 482.424000
131.121000 2.328000 482.210000
131.675000 2.328000 482.211000
132.213000 2.328000 482.153000
132.733000 2.327000 482.031000
133.274000 2.327000 481.987000
133.742000 2.325000 481.679000
134.288000 2.325000 481.656000
134.767000 2.324000 481.389000
135.330000 2.324000 481.427000
135.806000 2.323000 481.152000
136.408000 2.324000 481.327000
136.864000 2.322000 480.988000
137.479000 2.323000 481.206000
137.943000 2.322000 480.900000
138.522000 2.322000 480.993000
139.000000 2.321000 480.735000
139.553000 2.321000 480.738000
140.019000 2.319000 480.444000
140.605000 2.320000 480.561000
141.058000 2.318000 480.224000
141.602000 2.318000 480.199000
142.102000 2.317000 480.026000
142.644000 2.317000 479.993000
143.166000 2.317000 479.896000
143.689000 2.316000 479.804000
144.221000 2.316000 479.739000
144.732000 2.315000 479.609000
145.277000 2.315000 479.588000
145.700000 2.313000 479.169000
146.355000 2.315000 479.511000
146.712000 2.312000 478.881000
147.398000 2.314000 479.324000
147.722000 2.310000 478.591000
148.421000 2.313000 479.073000
148.751000 2.309000 478.363000
149.458000 2.312000 478.868000
149.806000 2.309000 478.226000
150.485000 2.311000 478.638000
150.880000 2.308000 478.148000
151.537000 2.310000 478.490000
151.960000 2.308000 478.091000
152.514000 2.308000 478.106000
153.008000 2.307000 477.936000
153.474000 2.306000 477.678000
154.071000 2.307000 477.828000
154.515000 2.305000 477.506000
155.243000 2.308000 478.058000
155.598000 2.305000 477.462000
156.342000 2.308000 478.063000
156.716000 2.305000 477.529000
157.604000 2.310000 478.559000
158.157000 2.310000 478.571000
158.783000 2.311000 478.802000
159.350000 2.312000 478.853000
159.856000 2.311000 478.721000
160.414000 2.311000 478.747000
160.946000 2.311000 478.692000
161.439000 2.310000 478.526000
162.035000 2.311000 478.663000
162.556000 2.310000 478.579000
162.987000 2.309000 478.229000
163.583000 2.309000 478.367000
164.053000 2.308000 478.138000
164.584000 2.308000 478.085000
165.057000 2.307000 477.866000
165.675000 2.308000 478.063000
166.089000 2.306000 477.677000
166.488000 2.304000 477.249000
166.932000 2.302000 476.950000
167.587000 2.304000 477.256000
168.069000 2.303000 477.070000
168.577000 2.302000 476.957000
168.952000 2.300000 476.469000
169.437000 2.299000 476.296000
170.061000 2.300000 476.509000
170.688000 2.301000 476.733000
171.227000 2.301000 476.710000
171.681000 2.300000 476.450000
172.094000 2.298000 476.081000
172.411000 2.295000 475.447000
172.856000 2.294000 475.169000
173.203000 2.291000 474.625000
173.829000 2.292000 474.847000
174.058000 2.288000 473.986000
174.702000 2.289000 474.256000
175.260000 2.290000 474.292000
175.948000 2.291000 474.680000
176.387000 2.290000 474.393000
186.507000 2.281000 472.433000
187.110000 2.281000 472.583000
187.666000 2.282000 472.617000
188.235000 2.282000 472.683000
188.763000 2.282000 472.647000
189.364000 2.282000 472.794000
189.893000 2.282000 472.759000
190.512000 2.283000 472.947000
191.124000 2.284000 473.117000
191.696000 2.284000 473.189000
192.255000 2.284000 473.226000
192.741000 2.284000 473.087000
193.337000 2.284000 473.215000
193.892000 2.285000 473.244000
194.491000 2.285000 473.379000
195.058000 2.285000 473.436000
195.679000 2.286000 473.624000
196.203000 2.286000 473.576000
196.799000 2.287000 473.702000
197.322000 2.287000 473.651000
198.002000 2.288000 473.976000
198.505000 2.288000 473.879000
199.087000 2.288000 473.969000
199.581000 2.287000 473.848000
200.275000 2.289000 474.204000
200.865000 2.290000 474.311000
201.421000 2.290000 474.339000
201.872000 2.289000 474.118000
202.247000 2.287000 473.721000
203.235000 2.292000 474.759000
204.554000 2.301000 476.562000
204.681000 2.296000 475.584000
204.862000 2.292000 474.738000
205.203000 2.289000 474.268000
205.913000 2.279000 472.148000
206.234000 2.277000 471.643000
206.525000 2.274000 471.071000
206.857000 2.272000 470.596000
207.165000 2.269000 470.068000
207.478000 2.267000 469.557000
207.824000 2.265000 469.120000
208.138000 2.262000 468.614000
208.524000 2.261000 468.273000
208.890000 2.259000 467.887000
209.244000 2.257000 467.478000
209.590000 2.255000 467.052000
210.024000 2.254000 466.826000
210.320000 2.251000 466.293000
210.769000 2.250000 466.102000
211.112000 2.248000 465.679000
211.506000 2.247000 465.368000
211.897000 2.245000 465.054000
212.317000 2.244000 464.805000
212.723000 2.242000 464.527000
213.129000 2.241000 464.247000
213.608000 2.241000 464.132000
213.946000 2.239000 463.709000
214.515000 2.239000 463.787000
214.851000 2.237000 463.364000
215.381000 2.237000 463.359000
215.764000 2.235000 463.039000
216.234000 2.235000 462.908000
216.627000 2.233000 462.611000
217.058000 2.232000 462.399000
217.473000 2.231000 462.152000
217.946000 2.230000 462.030000
218.417000 2.230000 461.902000
218.861000 2.229000 461.721000
219.401000 2.229000 461.742000
219.861000 2.228000 461.595000
220.486000 2.229000 461.794000
220.932000 2.228000 461.617000
221.518000 2.229000 461.733000
221.967000 2.228000 461.564000
222.505000 2.228000 461.582000
223.020000 2.228000 461.550000
223.555000 2.228000 461.561000
224.099000 2.228000 461.589000
224.611000 2.228000 461.553000
225.213000 2.229000 461.700000
225.743000 2.229000 461.701000
226.347000 2.230000 461.850000
226.867000 2.229000 461.830000
227.579000 2.231000 462.197000
228.054000 2.231000 462.085000
228.801000 2.233000 462.523000
229.347000 2.233000 462.554000
230.039000 2.235000 462.877000
230.643000 2.235000 463.022000
231.375000 2.237000 463.423000
232.050000 2.239000 463.709000
232.780000 2.240000 464.102000
233.564000 2.243000 464.603000
234.300000 2.245000 465.003000
235.244000 2.249000 465.816000
109.333000 2.906000 486.274000
109.882000 2.906000 486.232000
110.366000 2.904000 485.907000
110.927000 2.904000 485.921000
111.431000 2.902000 485.685000
112.010000 2.903000 485.778000
112.530000 2.902000 485.615000
113.085000 2.902000 485.602000
113.586000 2.900000 485.362000
114.125000 2.900000 485.282000
114.657000 2.899000 485.176000
115.194000 2.899000 485.092000
115.694000 2.897000 484.852000
116.268000 2.898000 484.924000
116.769000 2.896000 484.694000
117.315000 2.896000 484.651000
117.877000 2.896000 484.673000
118.408000 2.896000 484.568000
118.910000 2.894000 484.344000
119.440000 2.894000 484.238000
119.948000 2.893000 484.044000
120.503000 2.892000 484.042000
120.998000 2.891000 483.798000
121.542000 2.891000 483.756000
122.076000 2.890000 483.670000
122.591000 2.889000 483.511000
123.153000 2.889000 483.535000
123.711000 2.890000 483.547000
124.231000 2.889000 483.409000
124.759000 2.888000 483.304000
125.248000 2.887000 483.050000
125.746000 2.885000 482.834000
126.333000 2.886000 482.957000
126.835000 2.885000 482.759000
127.411000 2.885000 482.840000
127.887000 2.884000 482.542000
128.445000 2.884000 482.557000
128.909000 2.882000 482.220000
129.471000 2.882000 482.252000
129.970000 2.881000 482.049000
130.531000 2.881000 482.077000
131.069000 2.880000 482.020000
131.621000 2.880000 482.013000
132.145000 2.880000 481.907000
132.662000 2.879000 481.776000
133.198000 2.879000 481.713000
133.668000 2.877000 481.414000
134.220000 2.877000 481.409000
134.703000 2.875000 481.161000
135.266000 2.875000 481.197000
135.734000 2.874000 480.899000
136.338000 2.875000 481.080000
136.803000 2.873000 480.774000
137.399000 2.874000 480.927000
137.872000 2.872000 480.653000
138.452000 2.873000 480.749000
138.938000 2.871000 480.521000
139.456000 2.871000 480.406000
139.941000 2.869000 480.177000
140.553000 2.871000 480.384000
140.987000 2.868000 479.982000
141.543000 2.868000 479.999000
142.025000 2.867000 479.766000
142.562000 2.867000 479.719000
143.082000 2.866000 479.616000
143.586000 2.865000 479.459000
144.152000 2.865000 479.512000
144.592000 2.863000 479.144000
145.216000 2.865000 479.387000
145.610000 2.862000 478.874000
146.297000 2.864000 479.322000
146.601000 2.859000 478.520000
147.340000 2.863000 479.134000
147.638000 2.858000 478.317000
148.364000 2.862000 478.888000
148.692000 2.857000 478.176000
149.400000 2.860000 478.685000
149.753000 2.857000 478.058000
150.435000 2.859000 478.479000
150.811000 2.856000 477.930000
151.443000 2.858000 478.191000
151.988000 2.857000 478.178000
152.451000 2.856000 477.910000
153.083000 2.857000 478.170000
153.595000 2.857000 478.053000
154.230000 2.858000 478.320000
154.704000 2.857000 478.090000
155.425000 2.860000 478.619000
155.831000 2.857000 478.176000
156.609000 2.862000 478.878000
157.034000 2.859000 478.498000
157.853000 2.864000 479.315000
158.296000 2.862000 478.992000
158.870000 2.863000 479.063000
159.416000 2.863000 479.052000
159.849000 2.861000 478.701000
160.387000 2.860000 478.666000
160.917000 2.860000 478.607000
161.385000 2.859000 478.365000
161.937000 2.859000 478.372000
162.399000 2.857000 478.115000
162.973000 2.858000 478.190000
163.477000 2.857000 478.059000
163.855000 2.854000 477.560000
164.330000 2.852000 477.345000
164.701000 2.849000 476.834000
165.474000 2.853000 477.486000
165.815000 2.850000 476.888000
166.388000 2.850000 476.961000
166.890000 2.849000 476.831000
167.536000 2.851000 477.111000
167.889000 2.848000 476.557000
168.292000 2.845000 476.151000
168.805000 2.845000 476.054000
169.276000 2.843000 475.843000
169.856000 2.844000 475.935000
170.398000 2.844000 475.924000
170.915000 2.843000 475.840000
171.387000 2.842000 475.636000
171.843000 2.841000 475.386000
172.245000 2.838000 474.990000
172.679000 2.837000 474.682000
172.971000 2.832000 473.990000
173.602000 2.834000 474.227000
186.366000 2.821000 472.073000
186.969000 2.822000 472.229000
187.488000 2.822000 472.169000
188.097000 2.823000 472.336000
188.588000 2.822000 472.209000
189.217000 2.823000 472.424000
189.716000 2.822000 472.317000
190.401000 2.825000 472.672000
190.963000 2.825000 472.718000
191.579000 2.826000 472.899000
192.111000 2.826000 472.873000
192.626000 2.825000 472.804000
193.191000 2.826000 472.858000
193.757000 2.826000 472.914000
194.368000 2.827000 473.081000
194.908000 2.827000 473.071000
195.547000 2.828000 473.303000
196.043000 2.828000 473.188000
196.656000 2.829000 473.357000
197.185000 2.828000 473.323000
197.863000 2.830000 473.643000
198.357000 2.830000 473.525000
198.951000 2.830000 473.644000
199.456000 2.830000 473.552000
200.112000 2.831000 473.818000
200.711000 2.832000 473.947000
201.309000 2.833000 474.075000
201.801000 2.832000 473.951000
202.192000 2.830000 473.593000
203.178000 2.836000 474.626000
204.395000 2.846000 476.190000
204.642000 2.841000 475.495000
204.885000 2.837000 474.793000
205.255000 2.835000 474.387000
205.904000 2.821000 472.127000
206.233000 2.818000 471.641000
206.518000 2.815000 471.055000
206.843000 2.812000 470.564000
207.141000 2.809000 470.014000
207.469000 2.806000 469.536000
207.817000 2.803000 469.104000
208.114000 2.800000 468.559000
208.515000 2.798000 468.253000
208.882000 2.796000 467.870000
209.238000 2.793000 467.466000
209.570000 2.791000 467.009000
209.997000 2.789000 466.765000
210.312000 2.786000 466.276000
210.756000 2.785000 466.074000
211.100000 2.783000 465.651000
211.505000 2.781000 465.367000
211.895000 2.779000 465.049000
212.326000 2.778000 464.825000
212.730000 2.776000 464.540000
213.125000 2.774000 464.240000
213.593000 2.773000 464.097000
213.934000 2.771000 463.683000
214.502000 2.771000 463.759000
214.833000 2.769000 463.324000
215.379000 2.769000 463.355000
215.777000 2.767000 463.068000
216.259000 2.767000 462.960000
216.602000 2.764000 462.558000
217.015000 2.763000 462.305000
217.405000 2.761000 462.007000
217.903000 2.760000 461.938000
218.371000 2.760000 461.806000
218.805000 2.758000 461.602000
219.335000 2.758000 461.603000
219.823000 2.758000 461.514000
220.461000 2.759000 461.741000
220.907000 2.758000 461.565000
221.523000 2.759000 461.745000
221.970000 2.758000 461.570000
222.499000 2.758000 461.568000
223.005000 2.758000 461.520000
223.533000 2.758000 461.516000
224.060000 2.758000 461.510000
224.591000 2.758000 461.512000
225.180000 2.759000 461.632000
225.728000 2.759000 461.669000
226.328000 2.760000 461.811000
226.849000 2.760000 461.793000
227.546000 2.762000 462.130000
227.984000 2.760000 461.944000
228.745000 2.763000 462.410000
229.338000 2.764000 462.535000
230.049000 2.766000 462.896000
230.636000 2.767000 463.008000
231.351000 2.769000 463.375000
232.044000 2.771000 463.697000
232.797000 2.774000 464.137000
233.551000 2.776000 464.576000
234.277000 2.778000 464.959000
235.289000 2.784000 465.905000
236.010000 2.786000 466.272000
109.286000 3.463000 486.067000
109.843000 3.463000 486.061000
110.321000 3.460000 485.710000
110.894000 3.461000 485.775000
111.389000 3.459000 485.502000
111.967000 3.459000 485.590000
112.485000 3.458000 485.419000
113.031000 3.458000 485.372000
113.536000 3.456000 485.147000
114.059000 3.455000 485.002000
114.585000 3.454000 484.874000
115.142000 3.454000 484.873000
115.644000 3.453000 484.644000
116.235000 3.454000 484.788000
116.744000 3.452000 484.591000
117.276000 3.451000 484.488000
117.830000 3.451000 484.477000
118.347000 3.450000 484.319000
118.843000 3.449000 484.075000
119.378000 3.448000 483.987000
119.885000 3.447000 483.790000
120.455000 3.447000 483.848000
120.958000 3.445000 483.641000
121.500000 3.445000 483.586000
122.042000 3.445000 483.533000
122.550000 3.443000 483.346000
123.088000 3.443000 483.279000
123.639000 3.443000 483.266000
124.173000 3.442000 483.186000
124.686000 3.441000 483.022000
125.225000 3.441000 482.961000
125.700000 3.438000 482.656000
126.306000 3.440000 482.853000
126.779000 3.438000 482.543000
127.376000 3.439000 482.707000
127.859000 3.437000 482.438000
128.395000 3.436000 482.371000
128.861000 3.434000 482.040000
129.436000 3.435000 482.122000
129.922000 3.433000 481.872000
130.491000 3.433000 481.929000
131.024000 3.433000 481.854000
131.571000 3.433000 481.830000
132.101000 3.432000 481.746000
132.609000 3.431000 481.580000
133.148000 3.430000 481.531000
133.625000 3.428000 481.257000
134.181000 3.429000 481.271000
134.650000 3.426000 480.972000
135.220000 3.427000 481.034000
135.696000 3.425000 480.763000
136.302000 3.426000 480.954000
136.760000 3.424000 480.624000
137.330000 3.424000 480.687000
137.813000 3.423000 480.446000
138.395000 3.423000 480.551000
138.898000 3.422000 480.381000
139.411000 3.421000 480.248000
139.883000 3.419000 479.975000
140.504000 3.421000 480.214000
140.926000 3.418000 479.774000
141.497000 3.418000 479.843000
141.979000 3.417000 479.611000
142.513000 3.416000 479.553000
143.032000 3.416000 479.447000
143.517000 3.414000 479.229000
144.102000 3.415000 479.346000
144.531000 3.412000 478.940000
145.179000 3.414000 479.267000
145.553000 3.410000 478.686000
146.239000 3.413000 479.133000
146.601000 3.409000 478.517000
147.302000 3.412000 479.011000
147.681000 3.409000 478.457000
148.356000 3.411000 478.863000
148.740000 3.408000 478.328000
149.419000 3.411000 478.744000
149.856000 3.408000 478.385000
150.509000 3.410000 478.715000
150.985000 3.409000 478.482000
151.574000 3.410000 478.605000
152.102000 3.409000 478.538000
152.592000 3.408000 478.352000
153.246000 3.410000 478.678000
153.844000 3.411000 478.828000
154.456000 3.413000 479.022000
154.949000 3.411000 478.845000
155.575000 3.413000 479.080000
155.959000 3.409000 478.569000
156.665000 3.413000 479.051000
157.175000 3.412000 478.926000
157.888000 3.415000 479.423000
158.275000 3.412000 478.928000
158.835000 3.412000 478.957000
159.296000 3.410000 478.689000
159.717000 3.407000 478.305000
160.264000 3.407000 478.299000
160.797000 3.407000 478.250000
161.249000 3.405000 477.961000
161.717000 3.403000 477.723000
162.286000 3.404000 477.783000
162.932000 3.406000 478.070000
163.322000 3.402000 477.604000
163.670000 3.398000 477.019000
163.967000 3.393000 476.293000
164.353000 3.390000 475.827000
165.161000 3.395000 476.582000
165.686000 3.395000 476.516000
166.233000 3.395000 476.517000
166.736000 3.394000 476.391000
167.288000 3.394000 476.406000
171.657000 3.383000 474.871000
172.093000 3.381000 474.571000
172.608000 3.380000 474.488000
172.930000 3.376000 473.878000
173.604000 3.378000 474.230000
186.779000 3.361000 471.748000
187.357000 3.361000 471.839000
187.932000 3.362000 471.923000
188.468000 3.362000 471.908000
189.088000 3.363000 472.103000
189.608000 3.363000 472.050000
190.277000 3.365000 472.365000
190.895000 3.366000 472.550000
191.519000 3.368000 472.752000
192.087000 3.368000 472.813000
192.540000 3.367000 472.592000
193.058000 3.366000 472.533000
193.619000 3.367000 472.576000
194.214000 3.368000 472.706000
194.763000 3.368000 472.720000
195.375000 3.369000 472.888000
195.914000 3.369000 472.878000
196.505000 3.370000 472.993000
197.073000 3.370000 473.052000
197.679000 3.371000 473.203000
198.243000 3.371000 473.252000
198.800000 3.372000 473.284000
199.358000 3.372000 473.319000
199.895000 3.372000 473.305000
200.524000 3.373000 473.506000
201.164000 3.375000 473.733000
201.735000 3.375000 473.797000
202.160000 3.373000 473.518000
202.542000 3.371000 473.139000
203.322000 3.375000 473.691000
204.686000 3.388000 475.598000
204.816000 3.381000 474.633000
205.272000 3.380000 474.427000
205.904000 3.363000 472.128000
206.239000 3.360000 471.656000
206.514000 3.356000 471.048000
206.813000 3.352000 470.495000
207.127000 3.348000 469.983000
207.474000 3.345000 469.547000
207.815000 3.342000 469.100000
208.113000 3.338000 468.558000
208.518000 3.336000 468.258000
208.856000 3.333000 467.811000
209.235000 3.330000 467.458000
209.571000 3.327000 467.012000
209.984000 3.325000 466.738000
210.294000 3.321000 466.236000
210.737000 3.320000 466.032000
211.095000 3.317000 465.641000
211.504000 3.315000 465.366000
211.886000 3.313000 465.030000
212.311000 3.311000 464.792000
212.709000 3.309000 464.496000
213.117000 3.307000 464.222000
213.575000 3.306000 464.060000
213.947000 3.303000 463.711000
