136.327000 46.056000 421.297000
136.797000 46.052000 421.256000
137.229000 46.034000 421.095000
137.687000 46.025000 421.017000
138.138000 46.015000 420.921000
138.603000 46.009000 420.864000
139.068000 46.003000 420.807000
139.553000 46.003000 420.815000
140.050000 46.008000 420.854000
140.495000 45.995000 420.742000
140.998000 46.002000 420.799000
141.472000 45.999000 420.774000
141.990000 46.010000 420.876000
142.454000 46.004000 420.818000
143.006000 46.026000 421.021000
143.462000 46.017000 420.942000
144.029000 46.044000 421.185000
144.527000 46.048000 421.226000
145.094000 46.075000 421.471000
145.595000 46.080000 421.519000
146.142000 46.100000 421.700000
146.703000 46.124000 421.921000
147.298000 46.159000 422.238000
147.843000 46.178000 422.411000
148.412000 46.204000 422.649000
149.019000 46.242000 422.994000
149.615000 46.276000 423.307000
150.297000 46.336000 423.858000
150.892000 46.370000 424.165000
151.614000 46.441000 424.822000
152.261000 46.490000 425.268000
43.197000 52.073000 471.382000
43.752000 52.089000 471.533000
44.237000 52.023000 470.936000
44.753000 51.995000 470.676000
45.285000 51.984000 470.583000
45.808000 51.965000 470.408000
46.305000 51.917000 469.972000
46.831000 51.901000 469.831000
47.325000 51.852000 469.381000
47.847000 51.833000 469.215000
48.365000 51.811000 469.015000
48.859000 51.763000 468.584000
49.418000 51.785000 468.780000
49.910000 51.738000 468.352000
50.373000 51.661000 467.654000
50.945000 51.696000 467.973000
51.405000 51.619000 467.275000
51.958000 51.635000 467.424000
52.437000 51.578000 466.907000
52.954000 51.560000 466.742000
53.451000 51.522000 466.394000
53.968000 51.504000 466.236000
54.443000 51.448000 465.725000
54.981000 51.451000 465.752000
55.455000 51.394000 465.239000
55.977000 51.383000 465.138000
56.463000 51.339000 464.743000
56.983000 51.327000 464.633000
57.458000 51.275000 464.159000
58.007000 51.288000 464.281000
58.443000 51.203000 463.512000
59.026000 51.248000 463.918000
59.458000 51.161000 463.126000
60.024000 51.190000 463.391000
60.474000 51.121000 462.765000
60.985000 51.104000 462.614000
61.460000 51.057000 462.191000
61.990000 51.057000 462.186000
62.428000 50.980000 461.495000
63.005000 51.019000 461.845000
63.429000 50.933000 461.067000
63.985000 50.955000 461.263000
64.422000 50.881000 460.596000
64.963000 50.891000 460.686000
65.400000 50.819000 460.038000
65.961000 50.845000 460.267000
66.385000 50.765000 459.541000
66.963000 50.803000 459.888000
67.381000 50.720000 459.138000
67.908000 50.720000 459.136000
68.388000 50.685000 458.820000
68.863000 50.646000 458.472000
69.367000 50.630000 458.326000
69.865000 50.610000 458.141000
70.297000 50.542000 457.527000
70.857000 50.567000 457.756000
71.291000 50.502000 457.163000
71.839000 50.519000 457.314000
72.278000 50.458000 456.769000
72.763000 50.431000 456.519000
73.254000 50.408000 456.311000
73.736000 50.379000 456.053000
74.218000 50.351000 455.797000
74.709000 50.329000 455.602000
75.190000 50.301000 455.347000
75.655000 50.262000 454.996000
76.166000 50.255000 454.926000
76.617000 50.208000 454.504000
77.140000 50.209000 454.511000
77.588000 50.161000 454.082000
78.065000 50.132000 453.819000
78.567000 50.120000 453.710000
79.020000 50.078000 453.322000
79.491000 50.046000 453.037000
80.009000 50.045000 453.023000
80.399000 49.964000 452.293000
80.986000 50.006000 452.673000
81.371000 49.923000 451.920000
81.955000 49.963000 452.282000
82.345000 49.884000 451.571000
82.871000 49.889000 451.614000
83.287000 49.828000 451.059000
83.809000 49.830000 451.078000
84.202000 49.756000 450.414000
84.768000 49.785000 450.671000
85.154000 49.708000 449.973000
85.715000 49.733000 450.207000
86.105000 49.660000 449.547000
86.633000 49.667000 449.607000
87.048000 49.609000 449.084000
87.582000 49.620000 449.176000
87.984000 49.556000 448.600000
88.534000 49.575000 448.774000
88.931000 49.509000 448.177000
89.435000 49.504000 448.127000
89.887000 49.469000 447.814000
90.335000 49.433000 447.484000
90.858000 49.438000 447.532000
91.279000 49.387000 447.075000
91.748000 49.364000 446.859000
92.221000 49.342000 446.664000
92.665000 49.306000 446.336000
93.139000 49.285000 446.149000
93.636000 49.277000 446.076000
94.054000 49.228000 445.628000
94.541000 49.215000 445.516000
126.974000 47.199000 427.265000
127.354000 47.158000 426.896000
127.676000 47.096000 426.332000
128.084000 47.066000 426.062000
128.433000 47.015000 425.597000
128.829000 46.981000 425.290000
129.185000 46.933000 424.855000
129.583000 46.901000 424.562000
129.964000 46.862000 424.215000
130.364000 46.831000 423.932000
130.754000 46.796000 423.618000
131.157000 46.766000 423.346000
131.556000 46.735000 423.068000
131.954000 46.704000 422.786000
132.384000 46.685000 422.609000
132.789000 46.657000 422.354000
133.221000 46.638000 422.186000
133.618000 46.607000 421.909000
134.064000 46.594000 421.788000
134.474000 46.568000 421.554000
134.938000 46.561000 421.493000
135.338000 46.532000 421.230000
135.807000 46.528000 421.186000
136.240000 46.510000 421.027000
136.712000 46.506000 420.992000
137.143000 46.488000 420.832000
137.597000 46.479000 420.742000
138.042000 46.466000 420.626000
138.513000 46.462000 420.590000
138.983000 46.457000 420.551000
139.453000 46.453000 420.513000
139.939000 46.454000 420.522000
140.377000 46.439000 420.388000
140.884000 46.447000 420.460000
141.366000 46.447000 420.457000
141.899000 46.463000 420.605000
142.333000 46.448000 420.461000
142.893000 46.473000 420.689000
143.354000 46.465000 420.623000
143.926000 46.494000 420.885000
144.401000 46.492000 420.861000
144.976000 46.521000 421.126000
145.472000 46.525000 421.164000
146.034000 46.550000 421.388000
146.575000 46.568000 421.554000
147.155000 46.599000 421.829000
147.717000 46.623000 422.051000
148.278000 46.647000 422.268000
148.845000 46.673000 422.501000
149.449000 46.710000 422.837000
150.124000 46.769000 423.373000
150.705000 46.799000 423.639000
151.421000 46.869000 424.280000
152.086000 46.924000 424.777000
34.336000 53.141000 476.103000
34.829000 53.060000 475.374000
35.397000 53.092000 475.669000
35.895000 53.022000 475.035000
36.418000 52.989000 474.739000
36.957000 52.980000 474.659000
37.482000 52.952000 474.414000
38.002000 52.917000 474.095000
38.537000 52.905000 473.990000
39.044000 52.854000 473.534000
39.577000 52.840000 473.407000
40.112000 52.829000 473.307000
40.607000 52.765000 472.737000
41.136000 52.748000 472.583000
41.639000 52.697000 472.131000
42.116000 52.616000 471.398000
42.704000 52.674000 471.920000
43.178000 52.591000 471.180000
43.722000 52.595000 471.210000
44.229000 52.555000 470.852000
44.740000 52.519000 470.536000
45.274000 52.512000 470.467000
45.797000 52.492000 470.290000
46.293000 52.442000 469.840000
46.814000 52.422000 469.658000
47.314000 52.379000 469.274000
47.833000 52.356000 469.075000
48.354000 52.337000 468.902000
48.845000 52.287000 468.452000
49.369000 52.272000 468.317000
49.904000 52.269000 468.291000
50.363000 52.188000 467.563000
50.932000 52.220000 467.852000
51.396000 52.146000 467.191000
51.936000 52.149000 467.220000
52.424000 52.101000 466.788000
52.935000 52.077000 466.574000
53.435000 52.042000 466.258000
53.953000 52.025000 466.109000
54.428000 51.968000 465.593000
54.967000 51.972000 465.630000
55.443000 51.917000 465.135000
55.963000 51.904000 465.020000
56.450000 51.861000 464.637000
56.972000 51.850000 464.539000
57.442000 51.793000 464.030000
57.998000 51.813000 464.211000
58.433000 51.727000 463.434000
59.017000 51.773000 463.845000
59.448000 51.684000 463.053000
59.997000 51.699000 463.188000
60.461000 51.641000 462.667000
60.967000 51.619000 462.471000
61.441000 51.572000 462.044000
61.983000 51.581000 462.131000
62.417000 51.502000 461.418000
62.989000 51.536000 461.728000
63.411000 51.448000 460.935000
63.966000 51.469000 461.122000
64.404000 51.396000 460.467000
64.949000 51.409000 460.588000
65.380000 51.332000 459.900000
65.941000 51.358000 460.129000
66.370000 51.281000 459.441000
66.934000 51.309000 459.688000
67.365000 51.235000 459.030000
67.878000 51.224000 458.932000
68.371000 51.199000 458.709000
68.847000 51.162000 458.370000
69.330000 51.129000 458.082000
69.843000 51.120000 457.995000
70.264000 51.044000 457.314000
70.838000 51.079000 457.627000
71.269000 51.011000 457.022000
71.807000 51.021000 457.107000
72.259000 50.969000 456.645000
72.732000 50.933000 456.326000
73.227000 50.913000 456.142000
73.715000 50.888000 455.922000
74.191000 50.856000 455.634000
74.679000 50.832000 455.419000
75.160000 50.804000 455.164000
75.624000 50.764000 454.810000
76.138000 50.759000 454.763000
76.592000 50.714000 454.358000
77.095000 50.702000 454.249000
77.562000 50.666000 453.926000
78.023000 50.627000 453.577000
78.539000 50.624000 453.551000
79.002000 50.587000 453.218000
79.448000 50.539000 452.793000
79.987000 50.551000 452.900000
80.372000 50.467000 452.144000
80.964000 50.512000 452.548000
81.348000 50.427000 451.793000
81.907000 50.452000 452.016000
82.317000 50.386000 451.421000
82.815000 50.373000 451.309000
83.239000 50.316000 450.798000
83.769000 50.324000 450.867000
84.154000 50.245000 450.155000
84.738000 50.285000 450.513000
85.119000 50.204000 449.791000
85.675000 50.227000 449.999000
86.074000 50.158000 449.383000
86.593000 50.160000 449.398000
87.013000 50.105000 448.903000
87.556000 50.120000 449.043000
126.866000 47.649000 426.902000
127.249000 47.609000 426.541000
127.594000 47.555000 426.059000
127.974000 47.515000 425.697000
128.324000 47.463000 425.237000
128.711000 47.426000 424.901000
129.081000 47.382000 424.512000
129.476000 47.349000 424.211000
129.861000 47.311000 423.876000
130.262000 47.280000 423.598000
130.657000 47.247000 423.302000
131.048000 47.213000 422.997000
131.454000 47.185000 422.741000
131.859000 47.156000 422.482000
132.291000 47.137000 422.312000
132.706000 47.112000 422.091000
133.142000 47.095000 421.937000
133.533000 47.062000 421.640000
133.981000 47.049000 421.526000
134.378000 47.019000 421.253000
134.845000 47.013000 421.200000
135.242000 46.983000 420.932000
135.714000 46.979000 420.895000
136.158000 46.965000 420.777000
136.627000 46.961000 420.733000
137.053000 46.941000 420.557000
137.513000 46.933000 420.486000
137.952000 46.918000 420.352000
138.430000 46.917000 420.338000
138.900000 46.912000 420.301000
139.358000 46.904000 420.225000
139.833000 46.902000 420.203000
140.287000 46.892000 420.119000
140.789000 46.899000 420.177000
141.265000 46.896000 420.158000
141.792000 46.911000 420.290000
142.240000 46.900000 420.186000
142.790000 46.922000 420.386000
143.234000 46.909000 420.273000
143.805000 46.938000 420.530000
144.289000 46.938000 420.535000
144.860000 46.967000 420.789000
145.361000 46.973000 420.842000
145.919000 46.997000 421.056000
146.460000 47.015000 421.223000
147.007000 47.036000 421.405000
147.572000 47.061000 421.635000
148.133000 47.086000 421.855000
148.730000 47.121000 422.173000
149.334000 47.159000 422.513000
149.953000 47.201000 422.889000
150.542000 47.234000 423.180000
151.265000 47.308000 423.844000
151.907000 47.356000 424.277000
39.552000 53.349000 473.103000
40.100000 53.355000 473.157000
40.590000 53.287000 472.547000
41.112000 53.259000 472.301000
41.633000 53.232000 472.063000
42.106000 53.145000 471.288000
42.694000 53.203000 471.809000
43.171000 53.123000 471.096000
43.702000 53.111000 470.990000
44.221000 53.085000 470.759000
44.724000 53.040000 470.361000
45.261000 53.037000 470.333000
45.778000 53.010000 470.093000
46.272000 52.958000 469.637000
46.804000 52.950000 469.563000
47.311000 52.913000 469.236000
47.814000 52.874000 468.887000
48.337000 52.858000 468.744000
48.840000 52.820000 468.406000
49.337000 52.775000 468.014000
49.878000 52.779000 468.047000
50.332000 52.692000 467.278000
50.919000 52.745000 467.741000
51.382000 52.668000 467.066000
51.903000 52.653000 466.930000
52.401000 52.614000 466.582000
52.904000 52.582000 466.296000
53.399000 52.542000 465.943000
53.926000 52.534000 465.875000
54.403000 52.478000 465.379000
54.942000 52.483000 465.417000
55.416000 52.425000 464.909000
55.942000 52.418000 464.846000
56.421000 52.367000 464.392000
56.951000 52.365000 464.371000
57.409000 52.295000 463.758000
57.976000 52.327000 464.034000
58.415000 52.243000 463.292000
58.999000 52.289000 463.700000
59.430000 52.200000 462.913000
59.957000 52.196000 462.872000
60.443000 52.157000 462.528000
60.941000 52.129000 462.280000
61.400000 52.067000 461.735000
61.955000 52.088000 461.922000
62.381000 52.001000 461.149000
62.957000 52.040000 461.493000
63.383000 51.955000 460.738000
63.930000 51.969000 460.864000
64.376000 51.902000 460.269000
64.920000 51.914000 460.376000
65.357000 51.842000 459.735000
65.919000 51.869000 459.975000
66.348000 51.791000 459.289000
66.894000 51.806000 459.416000
67.342000 51.744000 458.871000
67.841000 51.723000 458.682000
68.349000 51.709000 458.561000
68.823000 51.670000 458.211000
69.280000 51.618000 457.751000
69.822000 51.630000 457.857000
70.243000 51.553000 457.178000
70.814000 51.587000 457.474000
71.246000 51.519000 456.875000
71.756000 51.509000 456.783000
72.233000 51.475000 456.486000
72.697000 51.432000 456.104000
73.197000 51.416000 455.955000
73.690000 51.394000 455.766000
74.165000 51.361000 455.469000
74.653000 51.337000 455.257000
75.135000 51.309000 455.013000
75.599000 51.270000 454.661000
76.107000 51.260000 454.576000
76.566000 51.218000 454.205000
77.061000 51.200000 454.044000
77.536000 51.170000 453.775000
78.004000 51.135000 453.464000
78.507000 51.124000 453.366000
78.988000 51.098000 453.140000
79.412000 51.036000 452.585000
79.973000 51.062000 452.820000
80.359000 50.978000 452.071000
80.946000 51.020000 452.449000
81.337000 50.939000 451.732000
81.882000 50.956000 451.881000
82.309000 50.899000 451.373000
126.784000 48.108000 426.625000
127.154000 48.063000 426.226000
127.511000 48.013000 425.782000
127.880000 47.968000 425.384000
128.232000 47.917000 424.931000
128.629000 47.883000 424.629000
128.997000 47.839000 424.238000
129.403000 47.809000 423.973000
129.791000 47.772000 423.648000
130.182000 47.737000 423.337000
130.572000 47.703000 423.028000
130.976000 47.673000 422.764000
131.393000 47.648000 422.542000
131.791000 47.616000 422.265000
132.206000 47.591000 422.041000
132.619000 47.566000 421.813000
133.053000 47.548000 421.653000
133.452000 47.517000 421.383000
133.906000 47.507000 421.291000
134.308000 47.478000 421.034000
134.772000 47.471000 420.973000
135.171000 47.441000 420.711000
135.639000 47.436000 420.664000
136.081000 47.422000 420.538000
136.542000 47.414000 420.470000
136.973000 47.396000 420.311000
137.439000 47.390000 420.260000
137.872000 47.373000 420.109000
138.343000 47.369000 420.074000
138.804000 47.362000 420.009000
139.267000 47.356000 419.952000
139.752000 47.357000 419.961000
140.209000 47.348000 419.884000
140.702000 47.352000 419.917000
141.171000 47.347000 419.878000
141.690000 47.360000 419.986000
142.149000 47.352000 419.919000
142.704000 47.376000 420.133000
143.136000 47.359000 419.985000
143.722000 47.394000 420.289000
144.186000 47.387000 420.234000
144.751000 47.414000 420.472000
145.246000 47.419000 420.510000
145.810000 47.445000 420.742000
146.340000 47.460000 420.876000
146.895000 47.483000 421.082000
147.449000 47.506000 421.284000
147.996000 47.526000 421.464000
148.620000 47.571000 421.863000
149.194000 47.600000 422.114000
149.793000 47.636000 422.439000
150.399000 47.674000 422.777000
151.097000 47.742000 423.374000
151.690000 47.775000 423.673000
43.166000 53.658000 471.047000
43.689000 53.637000 470.858000
44.213000 53.616000 470.676000
44.712000 53.567000 470.245000
45.244000 53.557000 470.160000
45.763000 53.532000 469.942000
46.261000 53.484000 469.521000
46.796000 53.480000 469.483000
47.306000 53.447000 469.192000
47.803000 53.400000 468.778000
48.316000 53.373000 468.540000
48.832000 53.348000 468.327000
49.317000 53.292000 467.829000
49.865000 53.303000 467.925000
50.317000 53.212000 467.130000
50.914000 53.276000 467.695000
51.376000 53.198000 467.010000
51.883000 53.168000 466.745000
52.385000 53.134000 466.442000
52.889000 53.102000 466.167000
53.376000 53.054000 465.743000
53.912000 53.055000 465.755000
54.388000 52.998000 465.254000
54.926000 53.002000 465.286000
55.402000 52.946000 464.792000
55.929000 52.939000 464.735000
56.400000 52.881000 464.222000
56.940000 52.887000 464.276000
57.393000 52.813000 463.631000
57.967000 52.852000 463.966000
58.406000 52.766000 463.218000
58.971000 52.797000 463.483000
59.420000 52.723000 462.835000
59.929000 52.703000 462.661000
60.424000 52.671000 462.383000
60.928000 52.648000 462.177000
61.374000 52.575000 461.539000
61.936000 52.602000 461.778000
62.364000 52.517000 461.027000
62.935000 52.552000 461.331000
63.366000 52.470000 460.614000
63.910000 52.482000 460.723000
64.360000 52.417000 460.154000
64.905000 52.431000 460.275000
65.340000 52.356000 459.617000
65.906000 52.387000 459.885000
66.332000 52.306000 459.174000
66.871000 52.315000 459.255000
67.329000 52.262000 458.787000
67.819000 52.233000 458.534000
68.317000 52.211000 458.343000
68.807000 52.184000 458.102000
69.237000 52.112000 457.469000
69.804000 52.143000 457.741000
70.225000 52.065000 457.063000
70.797000 52.100000 457.365000
71.228000 52.031000 456.762000
71.718000 52.006000 456.544000
72.206000 51.980000 456.313000
72.668000 51.936000 455.924000
73.173000 51.923000 455.811000
73.666000 51.901000 455.620000
74.142000 51.868000 455.329000
74.626000 51.841000 455.092000
75.116000 51.819000 454.899000
75.570000 51.772000 454.485000
76.076000 51.761000 454.389000
76.549000 51.728000 454.101000
77.034000 51.704000 453.890000
77.493000 51.662000 453.520000
78.007000 51.658000 453.484000
78.451000 51.607000 453.039000
78.990000 51.620000 453.151000
79.473000 51.595000 452.937000
80.087000 51.656000 453.466000
80.511000 51.594000 452.925000
81.091000 51.632000 453.257000
81.518000 51.573000 452.740000
126.369000 48.627000 426.878000
126.705000 48.568000 426.362000
127.081000 48.524000 425.979000
127.410000 48.464000 425.445000
127.804000 48.428000 425.129000
128.161000 48.378000 424.695000
128.559000 48.345000 424.399000
128.920000 48.297000 423.984000
129.319000 48.264000 423.696000
129.713000 48.230000 423.393000
130.112000 48.198000 423.111000
130.502000 48.162000 422.801000
130.905000 48.132000 422.535000
131.318000 48.106000 422.302000
131.722000 48.076000 422.043000
132.140000 48.052000 421.829000
132.532000 48.018000 421.536000
132.974000 48.003000 421.403000
133.374000 47.973000 421.139000
133.815000 47.958000 421.005000
134.240000 47.937000 420.820000
134.682000 47.922000 420.691000
135.090000 47.896000 420.459000
135.568000 47.894000 420.442000
135.974000 47.867000 420.208000
136.452000 47.865000 420.191000
136.888000 47.849000 420.050000
137.350000 47.842000 419.987000
137.782000 47.825000 419.836000
138.243000 47.817000 419.769000
138.714000 47.813000 419.737000
139.179000 47.808000 419.686000
139.660000 47.807000 419.685000
140.124000 47.801000 419.630000
140.617000 47.805000 419.662000
141.092000 47.803000 419.643000
141.603000 47.813000 419.730000
142.060000 47.804000 419.656000
142.602000 47.824000 419.834000
143.052000 47.814000 419.738000
143.615000 47.841000 419.976000
144.080000 47.835000 419.926000
144.635000 47.859000 420.136000
145.124000 47.861000 420.156000
145.690000 47.888000 420.395000
146.218000 47.903000 420.526000
146.779000 47.929000 420.750000
147.333000 47.952000 420.953000
147.908000 47.982000 421.214000
148.521000 48.023000 421.580000
149.056000 48.040000 421.724000
149.663000 48.079000 422.072000
150.302000 48.129000 422.504000
150.932000 48.175000 422.912000
151.568000 48.223000 423.332000
152.292000 48.298000 423.994000
43.158000 54.189000 470.960000
43.666000 54.149000 470.608000
44.200000 54.141000 470.539000
44.701000 54.092000 470.119000
45.226000 54.075000 469.966000
45.752000 54.059000 469.826000
46.247000 54.007000 469.376000
46.767000 53.985000 469.185000
47.271000 53.946000 468.843000
47.779000 53.911000 468.542000
48.283000 53.874000 468.220000
48.810000 53.861000 468.112000
49.275000 53.783000 467.426000
49.856000 53.830000 467.840000
50.316000 53.748000 467.123000
50.862000 53.758000 467.210000
51.353000 53.710000 466.797000
51.846000 53.666000 466.417000
52.360000 53.644000 466.221000
52.865000 53.613000 465.950000
53.351000 53.564000 465.529000
53.907000 53.585000 465.709000
54.379000 53.523000 465.173000
54.898000 53.509000 465.048000
55.374000 53.453000 464.563000
55.902000 53.447000 464.511000
56.370000 53.385000 463.972000
56.919000 53.400000 464.105000
57.364000 53.319000 463.398000
57.944000 53.363000 463.778000
58.379000 53.274000 463.004000
58.928000 53.289000 463.141000
59.400000 53.237000 462.681000
59.888000 53.198000 462.345000
60.374000 53.159000 462.004000
60.906000 53.159000 462.010000
61.331000 53.068000 461.216000
61.912000 53.113000 461.604000
62.338000 53.024000 460.836000
62.909000 53.059000 461.140000
63.339000 52.976000 460.418000
63.887000 52.992000 460.554000
64.327000 52.919000 459.919000
64.884000 52.942000 460.122000
65.317000 52.865000 459.452000
65.883000 52.896000 459.720000
66.310000 52.816000 459.024000
66.840000 52.818000 459.044000
67.312000 52.775000 458.666000
67.801000 52.745000 458.410000
68.278000 52.708000 458.083000
68.791000 52.698000 457.999000
69.208000 52.615000 457.276000
69.788000 52.656000 457.634000
70.212000 52.580000 456.978000
70.751000 52.591000 457.069000
71.223000 52.551000 456.726000
71.732000 52.541000 456.632000
72.216000 52.511000 456.373000
72.665000 52.457000 455.904000
73.158000 52.435000 455.716000
126.299000 49.090000 426.641000
126.642000 49.033000 426.148000
127.024000 48.992000 425.789000
127.349000 48.929000 425.241000
127.745000 48.893000 424.933000
128.105000 48.845000 424.511000
128.496000 48.808000 424.191000
128.866000 48.764000 423.808000
129.257000 48.728000 423.494000
129.641000 48.689000 423.159000
130.052000 48.661000 422.914000
130.440000 48.625000 422.599000
130.841000 48.593000 422.327000
131.257000 48.568000 422.104000
131.658000 48.537000 421.838000
132.073000 48.512000 421.617000
132.470000 48.480000 421.340000
132.909000 48.463000 421.197000
133.309000 48.433000 420.933000
133.749000 48.417000 420.798000
134.160000 48.391000 420.569000
134.622000 48.384000 420.506000
135.018000 48.353000 420.235000
135.487000 48.348000 420.192000
135.896000 48.322000 419.966000
136.376000 48.321000 419.958000
136.806000 48.303000 419.800000
137.269000 48.296000 419.739000
137.698000 48.277000 419.580000
138.167000 48.273000 419.539000
138.646000 48.272000 419.530000
139.109000 48.265000 419.474000
139.583000 48.263000 419.453000
140.047000 48.257000 419.399000
140.535000 48.259000 419.418000
141.001000 48.253000 419.371000
141.517000 48.265000 419.475000
141.980000 48.259000 419.420000
142.522000 48.279000 419.598000
142.961000 48.265000 419.472000
143.530000 48.294000 419.726000
144.004000 48.291000 419.702000
144.535000 48.308000 419.846000
145.044000 48.317000 419.925000
145.594000 48.339000 420.120000
146.113000 48.351000 420.224000
146.688000 48.382000 420.490000
147.217000 48.397000 420.620000
147.796000 48.429000 420.894000
148.396000 48.467000 421.226000
148.941000 48.487000 421.400000
149.566000 48.532000 421.797000
150.177000 48.573000 422.153000
150.801000 48.618000 422.545000
151.431000 48.665000 422.949000
152.151000 48.740000 423.601000
152.741000 48.773000 423.888000
153.528000 48.869000 424.718000
154.188000 48.923000 425.195000
43.146000 54.715000 470.833000
43.639000 54.655000 470.316000
44.191000 54.670000 470.440000
44.694000 54.624000 470.046000
45.207000 54.593000 469.777000
45.738000 54.582000 469.683000
46.234000 54.531000 469.248000
46.746000 54.500000 468.980000
47.242000 54.450000 468.551000
47.756000 54.423000 468.317000
48.252000 54.376000 467.912000
48.799000 54.387000 468.005000
49.256000 54.299000 467.249000
49.850000 54.361000 467.788000
50.311000 54.278000 467.074000
50.829000 54.259000 466.909000
51.331000 54.224000 466.602000
51.828000 54.183000 466.254000
52.338000 54.156000 466.023000
52.850000 54.133000 465.822000
53.332000 54.079000 465.361000
53.900000 54.113000 465.650000
54.365000 54.043000 465.050000
54.887000 54.032000 464.951000
55.362000 53.974000 464.456000
55.889000 53.968000 464.406000
56.355000 53.904000 463.851000
56.909000 53.924000 464.029000
57.352000 53.840000 463.303000
57.929000 53.882000 463.664000
58.367000 53.795000 462.912000
58.901000 53.797000 462.931000
59.386000 53.754000 462.565000
59.882000 53.724000 462.301000
60.351000 53.668000 461.821000
60.901000 53.686000 461.975000
61.322000 53.590000 461.154000
61.914000 53.644000 461.614000
62.340000 53.554000 460.845000
62.913000 53.592000 461.167000
63.345000 53.510000 460.459000
63.890000 53.523000 460.574000
64.330000 53.450000 459.944000
64.904000 53.487000 460.266000
65.349000 53.419000 459.677000
65.905000 53.442000 459.874000
66.339000 53.366000 459.226000
66.863000 53.363000 459.198000
67.326000 53.312000 458.760000
67.858000 53.317000 458.801000
68.335000 53.278000 458.464000
68.840000 53.261000 458.318000
69.320000 53.226000 458.017000
125.169000 49.715000 427.802000
125.515000 49.657000 427.310000
125.843000 49.593000 426.757000
126.208000 49.544000 426.335000
126.555000 49.488000 425.855000
126.933000 49.445000 425.484000
127.276000 49.389000 424.998000
127.672000 49.353000 424.691000
128.033000 49.304000 424.273000
128.416000 49.264000 423.928000
128.790000 49.221000 423.558000
129.186000 49.187000 423.262000
129.567000 49.147000 422.917000
129.981000 49.120000 422.686000
130.379000 49.087000 422.403000
130.774000 49.053000 422.111000
131.187000 49.026000 421.880000
131.587000 48.995000 421.609000
132.012000 48.973000 421.422000
132.407000 48.940000 421.138000
132.839000 48.921000 420.977000
133.230000 48.887000 420.682000
133.685000 48.877000 420.595000
134.097000 48.851000 420.374000
134.562000 48.845000 420.317000
134.955000 48.813000 420.040000
135.415000 48.804000 419.970000
135.828000 48.779000 419.755000
136.312000 48.780000 419.763000
136.747000 48.763000 419.618000
137.195000 48.751000 419.513000
137.628000 48.734000 419.364000
138.098000 48.730000 419.330000
138.567000 48.726000 419.293000
139.033000 48.720000 419.246000
139.514000 48.720000 419.245000
139.976000 48.713000 419.186000
140.457000 48.713000 419.186000
140.926000 48.709000 419.149000
141.429000 48.716000 419.212000
141.896000 48.711000 419.169000
142.438000 48.732000 419.349000
142.888000 48.721000 419.256000
143.435000 48.744000 419.448000
143.936000 48.750000 419.504000
144.467000 48.767000 419.649000
144.976000 48.776000 419.726000
145.512000 48.794000 419.882000
146.044000 48.811000 420.027000
146.603000 48.837000 420.246000
147.115000 48.846000 420.331000
147.702000 48.881000 420.628000
148.272000 48.910000 420.875000
148.830000 48.934000 421.087000
149.471000 48.986000 421.529000
150.042000 49.014000 421.776000
150.678000 49.064000 422.201000
151.302000 49.109000 422.589000
151.989000 49.174000 423.151000
152.589000 49.211000 423.467000
153.350000 49.299000 424.227000
154.067000 49.373000 424.860000
43.137000 55.244000 470.734000
43.627000 55.179000 470.181000
44.180000 55.196000 470.323000
44.680000 55.147000 469.904000
45.182000 55.101000 469.516000
45.714000 55.093000 469.445000
46.204000 55.033000 468.938000
46.723000 55.010000 468.743000
47.223000 54.967000 468.368000
47.740000 54.943000 468.166000
48.219000 54.876000 467.599000
48.784000 54.908000 467.868000
49.246000 54.824000 467.153000
49.840000 54.887000 467.689000
50.297000 54.800000 466.946000
50.784000 54.747000 466.498000
51.312000 54.739000 466.425000
51.806000 54.695000 466.055000
52.316000 54.669000 465.831000
52.843000 54.660000 465.757000
53.303000 54.584000 465.106000
53.867000 54.614000 465.363000
54.330000 54.543000 464.756000
54.859000 54.538000 464.715000
55.330000 54.476000 464.190000
55.858000 54.471000 464.149000
56.312000 54.395000 463.496000
56.881000 54.430000 463.799000
57.321000 54.343000 463.054000
57.893000 54.380000 463.372000
58.355000 54.315000 462.820000
58.899000 54.326000 462.912000
59.392000 54.291000 462.615000
59.932000 54.300000 462.685000
60.388000 54.232000 462.106000
60.951000 54.260000 462.351000
61.419000 54.205000 461.880000
61.971000 54.224000 462.040000
62.425000 54.158000 461.477000
62.988000 54.186000 461.715000
63.433000 54.114000 461.101000
63.973000 54.122000 461.173000
64.500000 54.121000 461.160000
65.006000 54.101000 460.989000
65.502000 54.073000 460.755000
66.007000 54.054000 460.590000
66.504000 54.028000 460.367000
67.011000 54.010000 460.215000
67.517000 53.992000 460.066000
68.017000 53.969000 459.871000
68.499000 53.934000 459.567000
69.062000 53.961000 459.797000
125.448000 50.121000 427.082000
125.780000 50.058000 426.543000
126.141000 50.007000 426.109000
126.484000 49.949000 425.617000
126.875000 49.911000 425.290000
127.218000 49.854000 424.803000
127.606000 49.815000 424.472000
127.963000 49.764000 424.039000
128.356000 49.728000 423.731000
128.732000 49.685000 423.364000
129.127000 49.650000 423.067000
129.510000 49.611000 422.731000
129.921000 49.583000 422.491000
130.317000 49.549000 422.201000
130.716000 49.516000 421.924000
131.123000 49.487000 421.674000
131.530000 49.458000 421.428000
131.958000 49.437000 421.250000
132.359000 49.406000 420.985000
132.786000 49.385000 420.809000
133.179000 49.352000 420.523000
133.631000 49.340000 420.425000
134.031000 49.310000 420.165000
134.507000 49.307000 420.144000
134.901000 49.275000 419.871000
135.361000 49.267000 419.800000
135.767000 49.239000 419.567000
136.253000 49.241000 419.581000
136.671000 49.218000 419.385000
137.138000 49.213000 419.339000
137.574000 49.196000 419.200000
138.034000 49.189000 419.136000
138.501000 49.184000 419.093000
138.971000 49.180000 419.059000
139.442000 49.176000 419.029000
139.899000 49.168000 418.955000
140.391000 49.172000 418.990000
140.855000 49.165000 418.938000
141.365000 49.175000 419.022000
141.829000 49.170000 418.974000
142.359000 49.187000 419.118000
142.801000 49.173000 419.001000
143.354000 49.198000 419.212000
143.848000 49.202000 419.249000
144.386000 49.221000 419.413000
144.894000 49.230000 419.490000
145.430000 49.249000 419.646000
145.967000 49.267000 419.804000
146.521000 49.291000 420.010000
147.043000 49.305000 420.125000
147.612000 49.334000 420.372000
148.170000 49.359000 420.586000
148.727000 49.383000 420.793000
149.366000 49.435000 421.233000
149.912000 49.455000 421.408000
150.582000 49.517000 421.929000
151.171000 49.551000 422.222000
151.880000 49.624000 422.846000
152.461000 49.655000 423.111000
153.216000 49.743000 423.857000
153.906000 49.809000 424.417000
154.716000 49.913000 425.304000
43.614000 55.703000 470.042000
44.151000 55.700000 470.017000
44.664000 55.666000 469.734000
45.150000 55.601000 469.181000
45.689000 55.601000 469.186000
46.176000 55.538000 468.654000
46.699000 55.520000 468.504000
47.203000 55.481000 468.171000
47.730000 55.468000 468.065000
48.205000 55.396000 467.456000
48.775000 55.435000 467.781000
49.238000 55.351000 467.075000
49.827000 55.410000 467.571000
50.286000 55.324000 466.848000
50.764000 55.260000 466.309000
51.304000 55.266000 466.358000
51.796000 55.219000 465.961000
52.283000 55.168000 465.532000
52.833000 55.185000 465.669000
56.888000 54.970000 463.856000
57.334000 54.886000 463.152000
57.913000 54.931000 463.533000
58.368000 54.859000 462.922000
58.916000 54.874000 463.052000
59.447000 54.874000 463.045000
60.002000 54.895000 463.226000
60.450000 54.818000 462.578000
61.003000 54.838000 462.749000
61.519000 54.824000 462.629000
62.022000 54.800000 462.420000
62.522000 54.773000 462.195000
63.034000 54.756000 462.056000
63.530000 54.727000 461.806000
125.388000 50.587000 426.876000
125.717000 50.523000 426.330000
126.084000 50.474000 425.917000
126.419000 50.412000 425.399000
126.813000 50.375000 425.082000
127.153000 50.316000 424.586000
127.548000 50.279000 424.278000
127.898000 50.226000 423.825000
128.291000 50.189000 423.514000
128.667000 50.146000 423.153000
129.071000 50.114000 422.885000
129.450000 50.073000 422.537000
129.852000 50.041000 422.267000
130.249000 50.007000 421.980000
130.642000 49.972000 421.686000
131.060000 49.947000 421.471000
131.473000 49.920000 421.246000
131.894000 49.896000 421.045000
132.297000 49.866000 420.788000
132.728000 49.846000 420.623000
133.122000 49.813000 420.344000
133.574000 49.801000 420.245000
133.977000 49.772000 419.995000
134.441000 49.765000 419.938000
134.841000 49.735000 419.685000
135.304000 49.728000 419.624000
135.717000 49.703000 419.413000
136.170000 49.692000 419.323000
136.601000 49.674000 419.170000
137.071000 49.670000 419.133000
137.516000 49.657000 419.023000
137.976000 49.649000 418.960000
138.434000 49.641000 418.890000
138.913000 49.640000 418.883000
139.382000 49.636000 418.849000
139.833000 49.625000 418.759000
140.337000 49.634000 418.829000
140.788000 49.623000 418.739000
141.296000 49.632000 418.819000
141.761000 49.627000 418.771000
142.287000 49.643000 418.904000
142.744000 49.634000 418.835000
143.290000 49.657000 419.025000
143.771000 49.657000 419.024000
144.315000 49.678000 419.206000
144.832000 49.691000 419.310000
145.352000 49.704000 419.421000
145.880000 49.720000 419.555000
146.431000 49.743000 419.754000
146.970000 49.763000 419.917000
147.518000 49.785000 420.103000
148.084000 49.813000 420.340000
148.647000 49.840000 420.568000
149.265000 49.885000 420.950000
149.817000 49.908000 421.143000
150.505000 49.976000 421.713000
151.054000 49.997000 421.895000
151.748000 50.066000 422.480000
152.376000 50.113000 422.876000
153.105000 50.193000 423.548000
153.731000 50.239000 423.935000
154.534000 50.342000 424.803000
43.608000 56.235000 469.978000
44.117000 56.197000 469.658000
44.653000 56.192000 469.619000
45.143000 56.130000 469.105000
45.674000 56.121000 469.026000
46.167000 56.066000 468.564000
46.697000 56.056000 468.483000
47.194000 56.008000 468.079000
60.593000 55.481000 463.674000
61.075000 55.435000 463.297000
61.574000 55.405000 463.046000
62.059000 55.364000 462.699000
62.584000 55.358000 462.650000
63.067000 55.315000 462.294000
125.334000 51.055000 426.692000
125.661000 50.990000 426.142000
126.033000 50.942000 425.745000
126.376000 50.883000 425.254000
126.759000 50.841000 424.901000
127.087000 50.777000 424.366000
127.481000 50.740000 424.056000
127.857000 50.696000 423.690000
128.238000 50.654000 423.340000
128.606000 50.608000 422.952000
129.020000 50.580000 422.715000
129.395000 50.537000 422.358000
129.796000 50.504000 422.083000
130.197000 50.472000 421.813000
130.588000 50.436000 421.512000
131.000000 50.408000 421.279000
131.420000 50.383000 421.075000
131.839000 50.359000 420.869000
132.241000 50.328000 420.611000
132.667000 50.306000 420.429000
133.069000 50.276000 420.176000
133.522000 50.264000 420.081000
133.927000 50.236000 419.840000
134.380000 50.225000 419.748000
134.792000 50.199000 419.530000
135.253000 50.191000 419.466000
135.660000 50.163000 419.236000
136.115000 50.154000 419.155000
136.546000 50.135000 419.000000
137.015000 50.131000 418.964000
137.457000 50.117000 418.846000
137.917000 50.109000 418.779000
138.375000 50.101000 418.713000
138.846000 50.097000 418.681000
139.318000 50.094000 418.655000
139.775000 50.085000 418.585000
140.279000 50.094000 418.655000
140.724000 50.081000 418.549000
141.224000 50.088000 418.606000
141.697000 50.085000 418.583000
142.226000 50.102000 418.726000
142.682000 50.093000 418.652000
143.230000 50.117000 418.848000
143.695000 50.112000 418.803000
144.226000 50.129000 418.948000
144.738000 50.140000 419.039000
145.284000 50.162000 419.226000
145.789000 50.170000 419.293000
146.343000 50.195000 419.502000
146.893000 50.218000 419.696000
147.439000 50.240000 419.880000
148.010000 50.270000 420.130000
148.565000 50.295000 420.337000
149.158000 50.332000 420.649000
149.719000 50.358000 420.865000
150.409000 50.428000 421.446000
150.930000 50.440000 421.548000
151.662000 50.523000 422.239000
152.268000 50.563000 422.576000
152.999000 50.644000 423.255000
153.615000 50.687000 423.614000
154.414000 50.790000 424.472000
155.141000 50.869000 425.131000
124.908000 51.572000 426.911000
125.267000 51.518000 426.466000
125.610000 51.458000 425.967000
125.979000 51.409000 425.560000
126.312000 51.346000 425.039000
126.706000 51.307000 424.722000
127.043000 51.247000 424.218000
127.433000 51.208000 423.895000
127.812000 51.165000 423.539000
128.196000 51.124000 423.202000
128.554000 51.073000 422.780000
128.960000 51.041000 422.521000
129.343000 51.001000 422.186000
129.745000 50.968000 421.916000
130.145000 50.935000 421.642000
130.537000 50.900000 421.348000
130.947000 50.871000 421.108000
131.355000 50.842000 420.865000
131.777000 50.818000 420.670000
132.194000 50.793000 420.460000
132.619000 50.771000 420.279000
133.019000 50.739000 420.018000
133.467000 50.726000 419.908000
133.872000 50.697000 419.668000
134.327000 50.687000 419.584000
134.745000 50.663000 419.386000
135.191000 50.649000 419.273000
135.606000 50.624000 419.068000
136.064000 50.616000 418.998000
136.501000 50.599000 418.862000
136.965000 50.593000 418.811000
137.400000 50.576000 418.671000
137.863000 50.570000 418.616000
138.331000 50.565000 418.579000
138.793000 50.558000 418.522000
139.260000 50.553000 418.480000
139.718000 50.546000 418.415000
140.222000 50.554000 418.484000
140.662000 50.539000 418.365000
141.170000 50.549000 418.447000
141.633000 50.543000 418.394000
142.171000 50.563000 418.563000
142.618000 50.551000 418.464000
143.173000 50.578000 418.683000
143.638000 50.572000 418.637000
144.169000 50.590000 418.783000
144.673000 50.598000 418.848000
145.204000 50.616000 418.995000
145.720000 50.628000 419.094000
146.267000 50.650000 419.284000
146.829000 50.678000 419.512000
147.370000 50.699000 419.681000
147.942000 50.729000 419.937000
148.495000 50.754000 420.139000
149.063000 50.783000 420.380000
149.648000 50.818000 420.666000
150.284000 50.869000 421.096000
150.828000 50.890000 421.264000
151.567000 50.976000 421.976000
152.146000 51.007000 422.238000
152.864000 51.085000 422.883000
153.518000 51.141000 423.346000
154.293000 51.237000 424.141000
155.042000 51.324000 424.859000
124.863000 52.043000 426.758000
125.222000 51.989000 426.312000
125.562000 51.927000 425.805000
125.935000 51.879000 425.411000
126.271000 51.817000 424.900000
126.669000 51.780000 424.598000
127.008000 51.719000 424.101000
127.392000 51.678000 423.761000
127.762000 51.631000 423.375000
128.160000 51.595000 423.082000
128.522000 51.546000 422.676000
128.923000 51.512000 422.399000
129.310000 51.473000 422.079000
129.706000 51.438000 421.791000
130.098000 51.401000 421.492000
130.496000 51.367000 421.215000
130.910000 51.340000 420.991000
131.304000 51.305000 420.704000
131.724000 51.281000 420.503000
132.136000 51.253000 420.276000
132.565000 51.232000 420.107000
132.973000 51.204000 419.871000
133.414000 51.188000 419.744000
133.814000 51.157000 419.486000
134.272000 51.148000 419.413000
134.693000 51.124000 419.223000
135.156000 51.118000 419.166000
135.567000 51.091000 418.949000
136.031000 51.085000 418.896000
136.464000 51.067000 418.749000
136.918000 51.057000 418.665000
137.353000 51.040000 418.529000
137.816000 51.033000 418.476000
138.279000 51.027000 418.420000
138.731000 51.016000 418.335000
139.205000 51.014000 418.316000
139.660000 51.005000 418.241000
140.169000 51.015000 418.328000
140.615000 51.003000 418.224000
141.119000 51.011000 418.294000
141.580000 51.004000 418.236000
142.123000 51.027000 418.421000
142.562000 51.012000 418.301000
143.111000 51.037000 418.502000
143.555000 51.024000 418.395000
144.117000 51.052000 418.632000
144.607000 51.056000 418.659000
145.136000 51.073000 418.797000
145.658000 51.087000 418.915000
146.207000 51.111000 419.110000
146.767000 51.138000 419.336000
147.296000 51.155000 419.471000
147.875000 51.189000 419.749000
148.424000 51.212000 419.936000
149.011000 51.248000 420.232000
149.594000 51.282000 420.515000
150.217000 51.330000 420.906000
150.766000 51.352000 421.092000
151.477000 51.430000 421.724000
152.036000 51.455000 421.932000
152.764000 51.537000 422.604000
153.434000 51.599000 423.116000
154.209000 51.696000 423.909000
154.889000 51.761000 424.438000
124.828000 52.519000 426.638000
125.173000 52.458000 426.144000
125.508000 52.394000 425.623000
125.882000 52.346000 425.234000
126.215000 52.282000 424.712000
126.620000 52.247000 424.435000
126.958000 52.186000 423.935000
127.345000 52.145000 423.602000
127.711000 52.096000 423.204000
128.102000 52.058000 422.892000
128.468000 52.009000 422.499000
128.876000 51.978000 422.245000
129.257000 51.936000 421.908000
129.654000 51.901000 421.621000
130.056000 51.868000 421.354000
130.451000 51.833000 421.069000
130.855000 51.802000 420.815000
131.258000 51.770000 420.557000
131.685000 51.748000 420.377000
132.089000 51.717000 420.129000
132.526000 51.699000 419.983000
132.934000 51.671000 419.750000
133.377000 51.656000 419.627000
133.779000 51.625000 419.377000
134.240000 51.617000 419.310000
134.657000 51.592000 419.110000
135.113000 51.583000 419.034000
135.528000 51.557000 418.827000
135.991000 51.551000 418.774000
136.417000 51.530000 418.604000
136.877000 51.522000 418.541000
137.317000 51.507000 418.417000
137.772000 51.497000 418.342000
138.233000 51.490000 418.281000
138.672000 51.475000 418.156000
139.155000 51.476000 418.165000
139.607000 51.466000 418.083000
140.116000 51.476000 418.169000
140.564000 51.464000 418.072000
141.075000 51.476000 418.165000
141.520000 51.463000 418.060000
142.068000 51.488000 418.262000
142.514000 51.475000 418.161000
143.060000 51.499000 418.353000
143.509000 51.487000 418.260000
144.063000 51.514000 418.476000
144.537000 51.511000 418.455000
145.074000 51.531000 418.618000
145.603000 51.549000 418.758000
146.154000 51.573000 418.958000
146.695000 51.595000 419.131000
147.230000 51.613000 419.282000
147.808000 51.647000 419.556000
148.342000 51.665000 419.706000
148.945000 51.707000 420.046000
149.525000 51.741000 420.320000
150.153000 51.791000 420.727000
150.690000 51.810000 420.878000
151.407000 51.890000 421.529000
151.963000 51.915000 421.730000
152.658000 51.986000 422.312000
153.356000 52.059000 422.901000
154.134000 52.157000 423.703000
154.759000 52.204000 424.084000
124.783000 52.989000 426.484000
125.139000 52.933000 426.028000
125.474000 52.868000 425.505000
125.850000 52.821000 425.125000
126.183000 52.756000 424.603000
126.563000 52.711000 424.245000
126.914000 52.655000 423.790000
127.312000 52.618000 423.495000
127.680000 52.569000 423.101000
128.073000 52.531000 422.795000
128.438000 52.482000 422.400000
128.843000 52.449000 422.135000
129.224000 52.407000 421.799000
129.623000 52.373000 421.521000
130.024000 52.339000 421.251000
130.422000 52.305000 420.976000
130.824000 52.272000 420.713000
131.226000 52.240000 420.454000
131.652000 52.218000 420.273000
132.054000 52.186000 420.017000
132.485000 52.165000 419.852000
132.891000 52.136000 419.612000
133.342000 52.124000 419.515000
133.744000 52.093000 419.267000
134.211000 52.087000 419.221000
134.620000 52.059000 418.995000
135.081000 52.051000 418.933000
135.489000 52.023000 418.709000
135.955000 52.018000 418.664000
136.381000 51.997000 418.495000
136.839000 51.988000 418.425000
137.273000 51.971000 418.283000
137.726000 51.960000 418.200000
138.175000 51.949000 418.107000
138.622000 51.936000 418.005000
139.109000 51.939000 418.027000
139.565000 51.930000 417.956000
140.067000 51.938000 418.021000
140.514000 51.926000 417.925000
141.032000 51.940000 418.035000
141.481000 51.928000 417.944000
142.026000 51.952000 418.137000
142.476000 51.941000 418.047000
143.024000 51.966000 418.245000
143.473000 51.955000 418.156000
144.019000 51.979000 418.348000
144.482000 51.972000 418.297000
145.034000 51.998000 418.502000
145.546000 52.009000 418.593000
146.103000 52.036000 418.812000
146.636000 52.055000 418.962000
147.162000 52.071000 419.089000
147.756000 52.111000 419.411000
148.288000 52.128000 419.553000
148.888000 52.170000 419.887000
149.454000 52.199000 420.121000
150.065000 52.244000 420.481000
150.625000 52.270000 420.696000
151.339000 52.351000 421.342000
151.903000 52.378000 421.563000
152.593000 52.449000 422.134000
153.285000 52.520000 422.705000
154.063000 52.620000 423.509000
154.677000 52.663000 423.859000
123.428000 53.742000 428.581000
123.749000 53.668000 427.990000
124.084000 53.600000 427.449000
124.421000 53.534000 426.923000
124.753000 53.466000 426.380000
125.105000 53.408000 425.914000
125.443000 53.343000 425.399000
125.832000 53.301000 425.064000
126.166000 53.236000 424.545000
126.527000 53.183000 424.124000
126.881000 53.127000 423.678000
127.274000 53.088000 423.367000
127.631000 53.035000 422.940000
128.039000 53.002000 422.682000
128.408000 52.955000 422.302000
128.806000 52.919000 422.014000
129.196000 52.880000 421.707000
129.592000 52.844000 421.419000
129.990000 52.809000 421.142000
130.391000 52.776000 420.875000
130.790000 52.742000 420.605000
131.194000 52.710000 420.349000
131.621000 52.688000 420.174000
132.017000 52.653000 419.898000
132.448000 52.633000 419.735000
132.855000 52.603000 419.500000
133.308000 52.592000 419.410000
133.712000 52.562000 419.166000
134.173000 52.553000 419.101000
134.573000 52.522000 418.849000
135.037000 52.515000 418.797000
135.455000 52.491000 418.604000
135.925000 52.487000 418.569000
136.354000 52.467000 418.412000
136.801000 52.454000 418.310000
137.235000 52.436000 418.169000
137.683000 52.424000 418.071000
138.128000 52.411000 417.965000
138.575000 52.398000 417.864000
139.063000 52.401000 417.890000
139.520000 52.393000 417.821000
140.016000 52.399000 417.870000
140.468000 52.389000 417.788000
140.983000 52.402000 417.891000
141.445000 52.395000 417.839000
141.990000 52.419000 418.029000
142.444000 52.410000 417.955000
143.001000 52.438000 418.179000
143.438000 52.422000 418.054000
143.993000 52.449000 418.270000
144.451000 52.441000 418.208000
145.009000 52.469000 418.431000
145.506000 52.475000 418.480000
146.062000 52.502000 418.695000
146.588000 52.519000 418.824000
147.120000 52.537000 418.970000
147.714000 52.577000 419.291000
148.239000 52.592000 419.412000
148.845000 52.637000 419.766000
149.393000 52.660000 419.949000
149.996000 52.702000 420.288000
150.569000 52.734000 420.540000
151.263000 52.807000 421.128000
151.815000 52.831000 421.317000
152.549000 52.918000 422.011000
153.212000 52.980000 422.503000
153.967000 53.073000 423.244000
154.577000 53.116000 423.585000
123.721000 54.147000 427.892000
124.056000 54.079000 427.353000
124.402000 54.016000 426.857000
124.726000 53.944000 426.289000
125.078000 53.885000 425.820000
125.415000 53.820000 425.305000
125.796000 53.774000 424.944000
126.125000 53.706000 424.408000
126.502000 53.659000 424.039000
126.862000 53.606000 423.616000
127.264000 53.570000 423.333000
127.619000 53.515000 422.899000
128.012000 53.477000 422.595000
128.373000 53.425000 422.185000
128.769000 53.388000 421.893000
129.163000 53.351000 421.600000
129.569000 53.319000 421.346000
129.967000 53.284000 421.068000
130.368000 53.250000 420.802000
130.765000 53.215000 420.524000
131.167000 53.182000 420.264000
131.587000 53.157000 420.066000
131.980000 53.121000 419.782000
132.419000 53.103000 419.644000
132.819000 53.071000 419.386000
133.279000 53.062000 419.318000
133.677000 53.029000 419.056000
134.140000 53.022000 418.999000
134.539000 52.990000 418.745000
135.011000 52.986000 418.717000
135.429000 52.961000 418.523000
135.904000 52.959000 418.504000
136.325000 52.936000 418.323000
136.773000 52.923000 418.223000
137.206000 52.905000 418.078000
137.641000 52.888000 417.943000
138.081000 52.873000 417.823000
138.528000 52.860000 417.723000
139.011000 52.862000 417.734000
139.471000 52.854000 417.673000
139.960000 52.857000 417.701000
140.418000 52.849000 417.638000
140.945000 52.867000 417.778000
141.408000 52.861000 417.729000
141.958000 52.887000 417.935000
