109.068000 -0.695000 337.056000
109.417000 -0.695000 336.942000
109.776000 -0.695000 336.854000
110.156000 -0.695000 336.835000
110.514000 -0.694000 336.747000
110.902000 -0.694000 336.750000
111.254000 -0.694000 336.644000
111.650000 -0.694000 336.673000
112.026000 -0.694000 336.641000
112.430000 -0.694000 336.696000
112.809000 -0.694000 336.671000
113.214000 -0.694000 336.726000
113.593000 -0.694000 336.704000
113.982000 -0.694000 336.711000
114.381000 -0.694000 336.748000
114.805000 -0.695000 336.857000
115.214000 -0.695000 336.922000
115.641000 -0.695000 337.040000
116.057000 -0.695000 337.122000
116.476000 -0.695000 337.215000
116.938000 -0.696000 337.431000
117.349000 -0.696000 337.499000
117.819000 -0.696000 337.735000
118.219000 -0.697000 337.770000
118.710000 -0.697000 338.064000
119.161000 -0.698000 338.241000
119.625000 -0.698000 338.457000
120.071000 -0.698000 338.617000
43.795000 -0.392000 429.474000
44.253000 -0.392000 429.139000
44.661000 -0.391000 428.320000
45.086000 -0.391000 427.685000
47.611000 -0.387000 423.938000
48.023000 -0.387000 423.277000
48.454000 -0.386000 422.794000
48.854000 -0.386000 422.057000
49.277000 -0.385000 421.530000
49.674000 -0.385000 420.796000
50.104000 -0.384000 420.343000
50.504000 -0.384000 419.660000
50.929000 -0.383000 419.192000
51.323000 -0.382000 418.479000
51.728000 -0.382000 417.865000
52.113000 -0.381000 417.108000
52.537000 -0.381000 416.673000
52.942000 -0.380000 416.094000
53.343000 -0.380000 415.501000
53.717000 -0.379000 414.704000
54.110000 -0.378000 414.063000
54.532000 -0.378000 413.663000
54.952000 -0.378000 413.245000
55.325000 -0.377000 412.489000
55.706000 -0.376000 411.808000
56.081000 -0.376000 411.088000
56.524000 -0.376000 410.875000
56.909000 -0.375000 410.252000
57.291000 -0.374000 409.615000
57.664000 -0.374000 408.924000
58.063000 -0.373000 408.424000
58.467000 -0.373000 407.977000
58.847000 -0.372000 407.364000
59.222000 -0.372000 406.727000
59.599000 -0.371000 406.111000
59.988000 -0.371000 405.589000
60.367000 -0.370000 405.008000
60.754000 -0.370000 404.486000
61.129000 -0.369000 403.897000
61.510000 -0.369000 403.352000
61.871000 -0.368000 402.687000
62.255000 -0.368000 402.179000
62.628000 -0.367000 401.609000
63.030000 -0.367000 401.235000
63.374000 -0.366000 400.499000
63.740000 -0.365000 399.910000
64.082000 -0.365000 399.177000
64.528000 -0.365000 399.100000
64.866000 -0.364000 398.363000
65.234000 -0.364000 397.821000
65.563000 -0.363000 397.044000
65.965000 -0.363000 396.721000
66.340000 -0.362000 396.239000
66.717000 -0.362000 395.775000
67.032000 -0.361000 394.956000
67.396000 -0.360000 394.433000
67.732000 -0.360000 393.752000
68.173000 -0.360000 393.684000
68.494000 -0.359000 392.934000
68.853000 -0.359000 392.411000
69.172000 -0.358000 391.665000
69.597000 -0.358000 391.526000
69.931000 -0.357000 390.880000
70.292000 -0.357000 390.394000
70.621000 -0.356000 389.731000
70.979000 -0.356000 389.244000
71.318000 -0.355000 388.654000
71.686000 -0.355000 388.233000
72.033000 -0.354000 387.700000
72.389000 -0.354000 387.224000
72.724000 -0.353000 386.637000
73.053000 -0.353000 386.030000
73.402000 -0.352000 385.534000
73.764000 -0.352000 385.115000
74.112000 -0.352000 384.625000
74.418000 -0.351000 383.928000
74.745000 -0.350000 383.342000
75.042000 -0.350000 382.613000
75.559000 -0.350000 383.004000
75.909000 -0.350000 382.551000
76.435000 -0.350000 382.986000
76.806000 -0.350000 382.644000
77.471000 -0.351000 383.763000
77.864000 -0.351000 383.526000
78.524000 -0.351000 384.604000
78.888000 -0.351000 384.226000
79.563000 -0.352000 385.360000
79.926000 -0.352000 384.976000
80.577000 -0.353000 385.975000
81.005000 -0.353000 385.903000
81.619000 -0.353000 386.714000
82.052000 -0.353000 386.661000
82.661000 -0.354000 387.434000
99.478000 -0.313000 342.687000
99.766000 -0.313000 342.325000
100.064000 -0.313000 342.000000
100.366000 -0.312000 341.689000
100.672000 -0.312000 341.398000
100.959000 -0.312000 341.045000
101.264000 -0.311000 340.753000
101.579000 -0.311000 340.495000
101.876000 -0.311000 340.182000
102.193000 -0.311000 339.939000
102.510000 -0.310000 339.694000
102.835000 -0.310000 339.478000
103.147000 -0.310000 339.223000
103.486000 -0.310000 339.057000
103.813000 -0.310000 338.854000
104.153000 -0.310000 338.694000
104.469000 -0.309000 338.457000
104.798000 -0.309000 338.267000
105.117000 -0.309000 338.042000
105.471000 -0.309000 337.932000
105.805000 -0.309000 337.760000
106.149000 -0.309000 337.620000
106.502000 -0.308000 337.511000
106.843000 -0.308000 337.365000
107.185000 -0.308000 337.222000
107.537000 -0.308000 337.113000
107.887000 -0.308000 336.995000
108.258000 -0.308000 336.945000
108.613000 -0.308000 336.846000
108.986000 -0.308000 336.804000
109.344000 -0.308000 336.716000
109.678000 -0.308000 336.554000
110.086000 -0.308000 336.620000
110.433000 -0.308000 336.499000
110.813000 -0.308000 336.481000
111.170000 -0.307000 336.393000
111.578000 -0.307000 336.457000
111.945000 -0.307000 336.400000
112.342000 -0.307000 336.431000
112.728000 -0.307000 336.429000
113.125000 -0.307000 336.461000
113.512000 -0.307000 336.463000
113.908000 -0.308000 336.492000
114.320000 -0.308000 336.569000
114.718000 -0.308000 336.602000
115.133000 -0.308000 336.686000
115.524000 -0.308000 336.697000
115.952000 -0.308000 336.816000
116.376000 -0.308000 336.927000
116.815000 -0.308000 337.075000
117.226000 -0.308000 337.146000
117.698000 -0.308000 337.388000
118.114000 -0.308000 337.471000
118.596000 -0.309000 337.739000
119.026000 -0.309000 337.858000
119.505000 -0.309000 338.117000
119.948000 -0.309000 338.272000
120.471000 -0.309000 338.650000
41.191000 0.102000 433.205000
43.777000 0.101000 429.299000
44.241000 0.101000 429.015000
44.650000 0.100000 428.214000
45.074000 0.100000 427.576000
45.481000 0.100000 426.782000
45.926000 0.100000 426.373000
46.341000 0.100000 425.688000
46.769000 0.100000 425.127000
47.169000 0.099000 424.335000
47.597000 0.099000 423.807000
48.006000 0.099000 423.127000
48.439000 0.099000 422.667000
48.840000 0.099000 421.935000
49.261000 0.099000 421.393000
49.657000 0.099000 420.649000
50.085000 0.098000 420.188000
50.483000 0.098000 419.484000
50.910000 0.098000 419.037000
51.308000 0.098000 418.359000
51.716000 0.098000 417.771000
52.102000 0.098000 417.018000
52.522000 0.098000 416.555000
52.930000 0.097000 416.000000
53.334000 0.097000 415.431000
53.709000 0.097000 414.638000
54.100000 0.097000 413.991000
54.510000 0.097000 413.493000
54.946000 0.097000 413.204000
55.318000 0.097000 412.434000
55.699000 0.096000 411.750000
56.069000 0.096000 410.998000
56.504000 0.096000 410.729000
56.898000 0.096000 410.174000
57.276000 0.096000 409.507000
57.649000 0.096000 408.816000
58.034000 0.096000 408.223000
58.437000 0.096000 407.762000
58.829000 0.095000 407.239000
59.206000 0.095000 406.615000
59.580000 0.095000 405.980000
59.973000 0.095000 405.484000
60.354000 0.095000 404.918000
60.742000 0.095000 404.404000
61.117000 0.095000 403.817000
61.498000 0.095000 403.273000
61.860000 0.094000 402.615000
62.241000 0.094000 402.091000
62.612000 0.094000 401.512000
63.020000 0.094000 401.174000
63.364000 0.094000 400.437000
63.731000 0.094000 399.852000
64.073000 0.094000 399.120000
64.506000 0.094000 398.968000
64.857000 0.093000 398.307000
65.225000 0.093000 397.766000
65.551000 0.093000 396.969000
65.947000 0.093000 396.610000
66.321000 0.093000 396.123000
66.708000 0.093000 395.725000
67.025000 0.093000 394.912000
67.388000 0.092000 394.386000
67.709000 0.092000 393.617000
68.163000 0.092000 393.630000
68.487000 0.092000 392.895000
68.845000 0.092000 392.367000
69.164000 0.092000 391.616000
69.573000 0.092000 391.391000
69.915000 0.092000 390.792000
70.279000 0.091000 390.317000
70.608000 0.091000 389.661000
70.964000 0.091000 389.163000
71.303000 0.091000 388.574000
71.669000 0.091000 388.136000
72.013000 0.091000 387.593000
72.376000 0.091000 387.154000
72.713000 0.091000 386.580000
73.044000 0.090000 385.981000
73.391000 0.090000 385.478000
73.756000 0.090000 385.071000
74.109000 0.090000 384.608000
74.415000 0.090000 383.912000
74.742000 0.090000 383.327000
75.039000 0.090000 382.599000
75.548000 0.090000 382.951000
75.894000 0.090000 382.478000
76.422000 0.090000 382.923000
76.801000 0.090000 382.618000
77.463000 0.090000 383.723000
77.840000 0.090000 383.411000
78.504000 0.090000 384.505000
78.871000 0.090000 384.142000
79.546000 0.090000 385.277000
79.909000 0.090000 384.892000
80.570000 0.090000 385.941000
80.977000 0.090000 385.772000
81.614000 0.091000 386.689000
82.036000 0.091000 386.585000
98.830000 0.080000 343.168000
99.116000 0.080000 342.794000
99.417000 0.080000 342.477000
99.692000 0.080000 342.069000
99.972000 0.080000 341.684000
100.273000 0.080000 341.376000
100.600000 0.080000 341.153000
100.892000 0.080000 340.817000
101.189000 0.080000 340.500000
101.507000 0.080000 340.253000
101.811000 0.080000 339.965000
102.118000 0.080000 339.688000
102.439000 0.080000 339.458000
102.773000 0.080000 339.275000
103.078000 0.079000 338.998000
103.410000 0.079000 338.809000
103.727000 0.079000 338.575000
104.072000 0.079000 338.433000
104.395000 0.079000 338.219000
104.731000 0.079000 338.049000
105.053000 0.079000 337.836000
105.399000 0.079000 337.701000
105.740000 0.079000 337.552000
106.086000 0.079000 337.420000
106.419000 0.079000 337.250000
106.776000 0.079000 337.154000
107.114000 0.079000 337.000000
107.475000 0.079000 336.916000
107.826000 0.079000 336.806000
108.176000 0.079000 336.692000
108.542000 0.079000 336.626000
108.890000 0.079000 336.508000
109.273000 0.079000 336.497000
109.610000 0.079000 336.346000
110.015000 0.079000 336.404000
110.357000 0.079000 336.269000
110.738000 0.079000 336.251000
111.095000 0.079000 336.164000
111.500000 0.079000 336.221000
111.871000 0.079000 336.178000
112.261000 0.079000 336.188000
112.642000 0.079000 336.173000
113.027000 0.079000 336.170000
113.421000 0.079000 336.194000
113.814000 0.079000 336.215000
114.236000 0.079000 336.319000
114.623000 0.079000 336.323000
115.049000 0.079000 336.439000
115.418000 0.079000 336.390000
115.865000 0.079000 336.565000
116.284000 0.079000 336.660000
116.725000 0.079000 336.817000
117.158000 0.079000 336.949000
117.577000 0.079000 337.041000
118.020000 0.079000 337.201000
118.468000 0.079000 337.374000
118.892000 0.079000 337.478000
119.381000 0.079000 337.765000
119.847000 0.079000 337.987000
120.365000 0.079000 338.352000
39.426000 0.602000 435.690000
39.874000 0.602000 435.127000
40.309000 0.601000 434.422000
40.754000 0.600000 433.849000
41.175000 0.599000 433.036000
41.618000 0.598000 432.475000
42.048000 0.597000 431.796000
42.496000 0.596000 431.313000
42.915000 0.595000 430.543000
43.344000 0.594000 429.894000
43.757000 0.593000 429.102000
44.217000 0.593000 428.790000
44.633000 0.592000 428.055000
45.061000 0.591000 427.448000
45.467000 0.590000 426.654000
45.905000 0.589000 426.176000
46.323000 0.588000 425.520000
46.755000 0.588000 425.003000
47.153000 0.587000 424.196000
47.579000 0.586000 423.654000
47.990000 0.585000 422.982000
48.426000 0.584000 422.548000
48.827000 0.583000 421.825000
49.245000 0.582000 421.256000
49.641000 0.581000 420.511000
50.068000 0.581000 420.043000
50.464000 0.580000 419.325000
50.887000 0.579000 418.845000
51.283000 0.578000 418.156000
51.691000 0.577000 417.571000
52.074000 0.576000 416.800000
52.477000 0.575000 416.200000
52.893000 0.575000 415.709000
53.320000 0.574000 415.317000
53.694000 0.573000 414.526000
54.085000 0.572000 413.875000
54.470000 0.571000 413.187000
54.930000 0.571000 413.078000
55.302000 0.570000 412.321000
55.686000 0.569000 411.654000
56.057000 0.568000 410.909000
56.470000 0.568000 410.483000
56.883000 0.567000 410.062000
57.259000 0.566000 409.384000
57.630000 0.565000 408.685000
58.002000 0.564000 407.996000
58.405000 0.563000 407.544000
58.809000 0.563000 407.100000
59.186000 0.562000 406.480000
59.561000 0.561000 405.850000
59.946000 0.560000 405.306000
60.325000 0.560000 404.723000
60.715000 0.559000 404.226000
61.087000 0.558000 403.616000
61.473000 0.557000 403.107000
61.837000 0.556000 402.465000
62.220000 0.556000 401.953000
62.583000 0.555000 401.321000
62.990000 0.554000 400.982000
63.344000 0.553000 400.306000
63.713000 0.553000 399.742000
64.054000 0.552000 399.002000
64.466000 0.551000 398.721000
64.833000 0.551000 398.160000
65.208000 0.550000 397.658000
65.531000 0.549000 396.849000
65.898000 0.548000 396.315000
66.267000 0.547000 395.805000
66.693000 0.547000 395.632000
67.008000 0.546000 394.813000
67.370000 0.545000 394.280000
67.682000 0.544000 393.458000
68.130000 0.544000 393.436000
68.461000 0.543000 392.744000
68.818000 0.542000 392.210000
69.140000 0.541000 391.485000
69.528000 0.541000 391.136000
69.871000 0.540000 390.542000
70.249000 0.539000 390.153000
70.575000 0.539000 389.480000
70.928000 0.538000 388.961000
71.270000 0.537000 388.391000
71.633000 0.536000 387.941000
71.976000 0.536000 387.390000
72.341000 0.535000 386.964000
72.685000 0.534000 386.431000
73.017000 0.533000 385.840000
73.353000 0.533000 385.278000
73.723000 0.532000 384.898000
74.106000 0.532000 384.593000
74.422000 0.531000 383.947000
74.763000 0.530000 383.436000
75.077000 0.529000 382.793000
75.527000 0.529000 382.845000
75.878000 0.529000 382.395000
76.409000 0.529000 382.855000
76.775000 0.529000 382.488000
77.436000 0.530000 383.587000
77.814000 0.530000 383.280000
78.478000 0.531000 384.378000
78.826000 0.531000 383.922000
79.513000 0.532000 385.117000
79.858000 0.532000 384.646000
80.556000 0.534000 385.876000
80.879000 0.533000 385.305000
81.528000 0.534000 386.284000
82.011000 0.534000 386.468000
99.030000 0.474000 342.498000
99.325000 0.473000 342.159000
99.610000 0.473000 341.789000
99.903000 0.472000 341.449000
100.192000 0.472000 341.099000
100.515000 0.471000 340.865000
100.822000 0.471000 340.581000
101.113000 0.470000 340.244000
101.424000 0.470000 339.977000
101.742000 0.470000 339.734000
102.053000 0.469000 339.472000
102.361000 0.469000 339.201000
102.696000 0.469000 339.020000
103.009000 0.468000 338.770000
103.340000 0.468000 338.579000
103.646000 0.468000 338.308000
103.998000 0.468000 338.191000
104.325000 0.467000 337.993000
104.661000 0.467000 337.824000
104.988000 0.467000 337.630000
105.325000 0.467000 337.466000
105.668000 0.466000 337.324000
106.016000 0.466000 337.199000
106.349000 0.466000 337.028000
106.707000 0.466000 336.934000
107.047000 0.466000 336.789000
107.402000 0.466000 336.687000
107.759000 0.465000 336.595000
108.099000 0.465000 336.452000
108.470000 0.465000 336.405000
108.811000 0.465000 336.262000
109.216000 0.465000 336.320000
109.549000 0.465000 336.159000
109.935000 0.465000 336.159000
110.261000 0.465000 335.975000
110.661000 0.465000 336.018000
111.032000 0.465000 335.973000
111.427000 0.465000 336.002000
111.791000 0.464000 335.937000
112.180000 0.464000 335.946000
112.561000 0.464000 335.931000
112.954000 0.464000 335.952000
113.340000 0.464000 335.953000
113.737000 0.465000 335.987000
114.140000 0.465000 336.038000
114.535000 0.465000 336.064000
114.969000 0.465000 336.204000
115.351000 0.465000 336.194000
115.784000 0.465000 336.329000
116.179000 0.465000 336.355000
116.642000 0.465000 336.577000
117.046000 0.465000 336.627000
117.484000 0.466000 336.776000
117.901000 0.466000 336.860000
118.366000 0.466000 337.083000
118.794000 0.466000 337.200000
119.264000 0.467000 337.435000
119.727000 0.467000 337.647000
120.239000 0.467000 337.996000
39.414000 1.102000 435.558000
39.861000 1.101000 434.985000
40.296000 1.099000 434.289000
40.741000 1.098000 433.715000
41.163000 1.096000 432.913000
41.605000 1.094000 432.345000
42.032000 1.092000 431.633000
42.481000 1.091000 431.155000
42.901000 1.089000 430.406000
43.333000 1.088000 429.782000
43.744000 1.086000 428.978000
44.198000 1.085000 428.601000
44.620000 1.083000 427.930000
45.049000 1.082000 427.340000
45.455000 1.080000 426.542000
45.887000 1.078000 426.010000
46.306000 1.077000 425.360000
46.742000 1.075000 424.881000
47.139000 1.073000 424.070000
47.565000 1.072000 423.524000
47.970000 1.070000 422.808000
48.407000 1.069000 422.387000
48.811000 1.067000 421.689000
49.231000 1.066000 421.140000
49.627000 1.064000 420.393000
50.053000 1.063000 419.914000
50.452000 1.061000 419.228000
50.876000 1.060000 418.756000
51.272000 1.058000 418.066000
51.682000 1.057000 417.498000
52.065000 1.055000 416.728000
52.467000 1.053000 416.116000
52.871000 1.052000 415.538000
53.306000 1.051000 415.207000
53.680000 1.049000 414.417000
54.070000 1.047000 413.761000
54.445000 1.045000 413.003000
54.887000 1.045000 412.759000
55.288000 1.043000 412.213000
55.669000 1.042000 411.533000
56.042000 1.040000 410.801000
56.437000 1.038000 410.247000
56.860000 1.037000 409.899000
57.247000 1.036000 409.299000
57.618000 1.034000 408.599000
57.992000 1.032000 407.925000
58.388000 1.031000 407.425000
58.795000 1.030000 407.001000
59.175000 1.029000 406.399000
59.549000 1.027000 405.774000
59.931000 1.026000 405.205000
60.310000 1.024000 404.623000
60.700000 1.023000 404.126000
61.071000 1.021000 403.510000
61.457000 1.020000 403.007000
61.823000 1.018000 402.375000
62.206000 1.017000 401.863000
62.560000 1.015000 401.177000
62.970000 1.015000 400.855000
63.331000 1.013000 400.225000
63.703000 1.012000 399.677000
64.044000 1.010000 398.940000
64.442000 1.009000 398.570000
64.812000 1.007000 398.031000
65.198000 1.006000 397.596000
65.521000 1.004000 396.787000
65.889000 1.003000 396.264000
66.232000 1.001000 395.597000
66.684000 1.001000 395.583000
66.999000 0.999000 394.763000
67.360000 0.998000 394.222000
67.671000 0.996000 393.394000
68.103000 0.995000 393.280000
68.450000 0.994000 392.685000
68.807000 0.992000 392.150000
69.129000 0.991000 391.419000
69.500000 0.990000 390.977000
69.846000 0.988000 390.404000
70.235000 0.987000 390.078000
70.562000 0.986000 389.406000
70.918000 0.984000 388.906000
71.262000 0.983000 388.349000
71.628000 0.982000 387.915000
71.972000 0.980000 387.368000
72.335000 0.979000 386.933000
72.679000 0.978000 386.400000
73.012000 0.976000 385.816000
73.351000 0.975000 385.269000
73.721000 0.974000 384.889000
74.105000 0.973000 384.590000
74.420000 0.972000 383.935000
74.759000 0.970000 383.413000
75.067000 0.969000 382.737000
75.504000 0.969000 382.729000
75.854000 0.967000 382.275000
76.400000 0.969000 382.812000
76.770000 0.968000 382.464000
77.429000 0.971000 383.553000
77.806000 0.970000 383.244000
78.462000 0.973000 384.301000
78.815000 0.972000 383.872000
79.477000 0.974000 384.943000
79.847000 0.973000 384.593000
80.529000 0.976000 385.744000
98.958000 0.866000 342.248000
99.246000 0.865000 341.888000
99.542000 0.864000 341.557000
99.845000 0.864000 341.251000
100.141000 0.863000 340.924000
100.446000 0.862000 340.632000
100.760000 0.861000 340.372000
101.057000 0.861000 340.054000
101.348000 0.860000 339.722000
101.672000 0.859000 339.501000
101.997000 0.859000 339.287000
102.302000 0.858000 339.006000
102.638000 0.858000 338.828000
102.951000 0.857000 338.577000
103.276000 0.856000 338.372000
103.589000 0.856000 338.124000
103.935000 0.855000 337.984000
104.252000 0.855000 337.755000
104.592000 0.854000 337.602000
104.921000 0.854000 337.413000
105.272000 0.854000 337.296000
105.608000 0.853000 337.131000
105.950000 0.853000 336.989000
106.284000 0.852000 336.821000
106.641000 0.852000 336.727000
106.984000 0.852000 336.591000
107.334000 0.852000 336.476000
107.697000 0.851000 336.402000
108.028000 0.851000 336.230000
108.411000 0.851000 336.222000
108.745000 0.851000 336.059000
109.140000 0.851000 336.089000
109.493000 0.850000 335.988000
109.857000 0.850000 335.921000
110.207000 0.850000 335.810000
110.592000 0.850000 335.809000
110.961000 0.850000 335.759000
111.356000 0.850000 335.789000
111.721000 0.850000 335.726000
112.114000 0.850000 335.748000
112.485000 0.850000 335.705000
112.878000 0.850000 335.727000
113.268000 0.850000 335.740000
113.667000 0.850000 335.779000
114.064000 0.850000 335.814000
114.474000 0.850000 335.887000
114.890000 0.850000 335.974000
115.285000 0.850000 336.000000
115.715000 0.851000 336.130000
116.090000 0.851000 336.097000
116.556000 0.851000 336.328000
116.938000 0.851000 336.317000
117.415000 0.852000 336.577000
117.814000 0.852000 336.613000
118.280000 0.853000 336.840000
118.717000 0.853000 336.980000
119.166000 0.853000 337.157000
119.620000 0.854000 337.346000
120.107000 0.854000 337.626000
120.597000 0.855000 337.914000
121.088000 0.856000 338.200000
39.401000 1.602000 435.412000
39.847000 1.600000 434.832000
40.281000 1.597000 434.120000
40.728000 1.595000 433.575000
41.149000 1.592000 432.771000
41.593000 1.590000 432.215000
42.016000 1.587000 431.464000
42.463000 1.586000 430.974000
42.889000 1.583000 430.279000
43.320000 1.581000 429.656000
43.732000 1.578000 428.855000
44.178000 1.576000 428.407000
44.600000 1.574000 427.738000
45.037000 1.572000 427.223000
45.441000 1.569000 426.410000
45.866000 1.567000 425.813000
46.287000 1.564000 425.183000
46.728000 1.563000 424.756000
47.126000 1.560000 423.953000
47.552000 1.558000 423.410000
47.952000 1.555000 422.651000
48.386000 1.553000 422.202000
48.791000 1.551000 421.514000
49.213000 1.549000 420.982000
49.609000 1.546000 420.243000
50.033000 1.544000 419.753000
50.434000 1.542000 419.075000
50.857000 1.540000 418.602000
51.257000 1.538000 417.942000
51.669000 1.536000 417.394000
52.055000 1.533000 416.645000
52.456000 1.531000 416.032000
52.851000 1.528000 415.381000
53.274000 1.527000 414.961000
53.662000 1.524000 414.275000
54.056000 1.522000 413.649000
54.436000 1.519000 412.930000
54.858000 1.518000 412.537000
55.272000 1.516000 412.097000
55.654000 1.514000 411.421000
56.027000 1.511000 410.693000
56.406000 1.509000 410.016000
56.824000 1.507000 409.639000
57.231000 1.505000 409.184000
57.602000 1.503000 408.482000
57.973000 1.500000 407.794000
58.356000 1.498000 407.202000
58.760000 1.497000 406.762000
59.152000 1.495000 406.244000
59.527000 1.492000 405.621000
59.906000 1.490000 405.032000
60.283000 1.488000 404.440000
60.678000 1.486000 403.979000
61.049000 1.484000 403.364000
61.433000 1.482000 402.851000
61.802000 1.480000 402.237000
62.183000 1.478000 401.717000
62.537000 1.475000 401.029000
62.939000 1.474000 400.658000
63.304000 1.472000 400.055000
63.682000 1.470000 399.543000
64.022000 1.467000 398.803000
64.395000 1.465000 398.277000
64.765000 1.463000 397.744000
65.182000 1.462000 397.500000
65.501000 1.459000 396.668000
65.867000 1.457000 396.132000
66.188000 1.454000 395.332000
66.664000 1.455000 395.461000
66.982000 1.452000 394.661000
67.345000 1.450000 394.131000
67.656000 1.447000 393.311000
68.067000 1.446000 393.073000
68.432000 1.444000 392.581000
68.789000 1.442000 392.045000
69.109000 1.440000 391.307000
69.462000 1.438000 390.767000
69.809000 1.436000 390.196000
70.208000 1.435000 389.926000
70.537000 1.432000 389.272000
70.892000 1.430000 388.766000
71.234000 1.428000 388.195000
71.598000 1.427000 387.753000
71.941000 1.425000 387.201000
72.304000 1.423000 386.769000
72.655000 1.421000 386.272000
72.986000 1.419000 385.679000
73.323000 1.417000 385.121000
73.662000 1.415000 384.581000
74.079000 1.414000 384.457000
74.396000 1.412000 383.813000
74.739000 1.410000 383.311000
75.038000 1.408000 382.592000
75.460000 1.407000 382.504000
75.825000 1.406000 382.128000
76.350000 1.408000 382.562000
76.757000 1.407000 382.398000
77.410000 1.411000 383.463000
77.800000 1.410000 383.215000
78.440000 1.414000 384.193000
78.754000 1.411000 383.574000
79.471000 1.416000 384.914000
98.883000 1.258000 341.990000
99.170000 1.257000 341.625000
99.470000 1.256000 341.309000
99.784000 1.255000 341.044000
100.074000 1.253000 340.695000
100.369000 1.252000 340.370000
100.681000 1.251000 340.105000
100.991000 1.250000 339.834000
101.294000 1.249000 339.539000
101.601000 1.248000 339.265000
101.933000 1.248000 339.072000
102.243000 1.247000 338.808000
102.568000 1.246000 338.597000
102.887000 1.245000 338.369000
103.217000 1.244000 338.176000
103.532000 1.243000 337.937000
103.871000 1.243000 337.778000
104.173000 1.242000 337.499000
104.524000 1.241000 337.382000
104.849000 1.241000 337.182000
105.206000 1.240000 337.084000
105.538000 1.240000 336.910000
105.882000 1.239000 336.773000
106.220000 1.238000 336.616000
106.574000 1.238000 336.515000
106.929000 1.238000 336.416000
107.266000 1.237000 336.261000
107.630000 1.237000 336.194000
107.969000 1.236000 336.046000
108.342000 1.236000 336.007000
108.681000 1.236000 335.861000
109.046000 1.235000 335.799000
109.426000 1.235000 335.781000
109.787000 1.235000 335.706000
110.149000 1.235000 335.635000
110.528000 1.235000 335.615000
110.892000 1.235000 335.551000
111.280000 1.235000 335.559000
111.661000 1.235000 335.547000
112.054000 1.235000 335.570000
112.423000 1.234000 335.518000
112.806000 1.234000 335.513000
113.189000 1.234000 335.508000
113.597000 1.235000 335.573000
113.992000 1.235000 335.601000
114.398000 1.235000 335.664000
114.797000 1.235000 335.703000
115.215000 1.235000 335.798000
115.643000 1.236000 335.921000
116.030000 1.236000 335.923000
116.463000 1.236000 336.060000
116.856000 1.236000 336.080000
117.334000 1.237000 336.346000
117.721000 1.237000 336.347000
118.197000 1.238000 336.601000
118.633000 1.239000 336.744000
119.082000 1.240000 336.919000
119.547000 1.240000 337.140000
120.017000 1.241000 337.374000
120.474000 1.242000 337.569000
120.975000 1.243000 337.886000
38.504000 2.108000 436.583000
38.954000 2.105000 436.008000
39.388000 2.101000 435.272000
39.833000 2.098000 434.673000
40.268000 2.095000 433.980000
40.714000 2.092000 433.431000
41.137000 2.089000 432.642000
41.581000 2.086000 432.089000
41.998000 2.082000 431.278000
42.448000 2.080000 430.819000
42.877000 2.077000 430.160000
43.308000 2.074000 429.537000
43.719000 2.070000 428.729000
44.159000 2.067000 428.220000
44.579000 2.064000 427.536000
45.023000 2.062000 427.087000
45.428000 2.058000 426.290000
45.853000 2.055000 425.687000
46.269000 2.052000 425.019000
46.717000 2.050000 424.659000
47.116000 2.046000 423.865000
47.540000 2.043000 423.307000
47.940000 2.040000 422.546000
48.374000 2.038000 422.100000
48.781000 2.034000 421.430000
49.203000 2.032000 420.898000
49.598000 2.028000 420.151000
50.020000 2.026000 419.639000
50.418000 2.022000 418.945000
50.840000 2.020000 418.457000
51.236000 2.017000 417.766000
51.649000 2.014000 417.234000
52.038000 2.011000 416.509000
52.443000 2.008000 415.926000
52.833000 2.005000 415.236000
53.263000 2.003000 414.876000
53.656000 2.000000 414.230000
54.047000 1.997000 413.581000
54.424000 1.993000 412.845000
54.832000 1.991000 412.342000
55.255000 1.989000 411.967000
55.644000 1.986000 411.350000
56.017000 1.982000 410.617000
56.397000 1.979000 409.952000
56.802000 1.977000 409.482000
57.219000 1.975000 409.097000
57.592000 1.972000 408.415000
57.964000 1.968000 407.730000
58.341000 1.965000 407.093000
58.743000 1.963000 406.643000
59.139000 1.961000 406.152000
59.514000 1.958000 405.532000
59.891000 1.955000 404.935000
60.265000 1.952000 404.322000
60.659000 1.950000 403.854000
61.031000 1.947000 403.247000
61.417000 1.944000 402.745000
61.784000 1.941000 402.123000
62.168000 1.939000 401.618000
62.523000 1.936000 400.939000
62.921000 1.934000 400.540000
63.282000 1.931000 399.914000
63.671000 1.928000 399.473000
64.011000 1.925000 398.734000
64.379000 1.922000 398.180000
64.739000 1.919000 397.582000
65.172000 1.919000 397.440000
65.491000 1.915000 396.610000
65.859000 1.912000 396.080000
66.180000 1.908000 395.282000
66.655000 1.909000 395.408000
66.974000 1.905000 394.613000
67.332000 1.902000 394.059000
67.646000 1.898000 393.249000
68.037000 1.897000 392.902000
68.401000 1.894000 392.404000
68.781000 1.892000 391.997000
69.102000 1.889000 391.269000
69.456000 1.886000 390.730000
69.796000 1.883000 390.124000
70.202000 1.882000 389.892000
70.532000 1.879000 389.240000
70.888000 1.877000 388.742000
71.229000 1.874000 388.169000
71.589000 1.872000 387.703000
71.933000 1.869000 387.161000
72.290000 1.867000 386.692000
72.643000 1.864000 386.210000
72.974000 1.862000 385.615000
73.315000 1.859000 385.079000
73.639000 1.856000 384.461000
74.067000 1.856000 384.393000
74.390000 1.853000 383.782000
74.732000 1.850000 383.277000
75.031000 1.847000 382.555000
75.435000 1.846000 382.377000
75.801000 1.844000 382.009000
76.329000 1.846000 382.457000
76.749000 1.846000 382.363000
77.412000 1.851000 383.471000
77.805000 1.850000 383.238000
98.539000 1.652000 342.160000
98.830000 1.650000 341.807000
99.119000 1.648000 341.449000
99.405000 1.647000 341.085000
99.714000 1.645000 340.802000
100.013000 1.644000 340.488000
100.313000 1.642000 340.181000
100.615000 1.641000 339.882000
100.930000 1.640000 339.627000
101.239000 1.638000 339.356000
101.539000 1.637000 339.056000
101.876000 1.636000 338.882000
102.189000 1.635000 338.629000
102.504000 1.634000 338.386000
102.820000 1.632000 338.149000
103.156000 1.632000 337.976000
103.467000 1.630000 337.725000
103.811000 1.630000 337.584000
104.125000 1.629000 337.343000
104.470000 1.628000 337.206000
104.801000 1.627000 337.025000
105.149000 1.626000 336.902000
105.479000 1.625000 336.721000
105.821000 1.625000 336.577000
106.167000 1.624000 336.451000
106.514000 1.624000 336.325000
106.876000 1.623000 336.248000
107.207000 1.622000 336.077000
107.563000 1.622000 335.985000
107.921000 1.622000 335.896000
108.290000 1.621000 335.846000
108.642000 1.621000 335.741000
109.001000 1.620000 335.660000
109.373000 1.620000 335.618000
109.730000 1.620000 335.531000
110.087000 1.619000 335.445000
110.462000 1.619000 335.415000
110.833000 1.619000 335.372000
111.219000 1.619000 335.374000
111.592000 1.619000 335.338000
111.976000 1.619000 335.336000
112.353000 1.619000 335.312000
112.743000 1.619000 335.325000
113.134000 1.619000 335.343000
113.535000 1.619000 335.390000
113.932000 1.619000 335.425000
114.330000 1.619000 335.463000
114.731000 1.620000 335.510000
115.138000 1.620000 335.573000
115.564000 1.621000 335.690000
115.971000 1.621000 335.752000
116.398000 1.621000 335.873000
116.791000 1.622000 335.895000
117.251000 1.623000 336.106000
117.641000 1.623000 336.119000
118.115000 1.624000 336.371000
118.538000 1.624000 336.473000
118.993000 1.625000 336.667000
119.447000 1.626000 336.857000
119.919000 1.627000 337.097000
120.389000 1.628000 337.330000
120.872000 1.630000 337.596000
40.252000 2.592000 433.813000
40.698000 2.589000 433.260000
41.124000 2.585000 432.503000
41.565000 2.581000 431.929000
41.983000 2.576000 431.122000
42.431000 2.573000 430.652000
42.860000 2.570000 429.992000
43.295000 2.566000 429.411000
43.707000 2.561000 428.611000
44.139000 2.558000 428.028000
44.560000 2.554000 427.351000
45.011000 2.551000 426.975000
45.415000 2.547000 426.172000
47.922000 2.524000 422.384000
48.349000 2.521000 421.876000
48.758000 2.517000 421.229000
49.184000 2.514000 420.736000
49.581000 2.510000 420.002000
50.001000 2.507000 419.482000
50.396000 2.502000 418.765000
50.820000 2.500000 418.293000
51.215000 2.495000 417.602000
51.632000 2.492000 417.093000
52.023000 2.488000 416.386000
52.429000 2.485000 415.818000
52.815000 2.480000 415.096000
53.240000 2.478000 414.693000
53.642000 2.475000 414.120000
54.033000 2.471000 413.480000
54.410000 2.466000 412.734000
54.802000 2.463000 412.119000
55.221000 2.460000 411.712000
55.628000 2.457000 411.226000
56.000000 2.453000 410.493000
56.378000 2.449000 409.812000
56.765000 2.445000 409.210000
57.196000 2.444000 408.936000
57.576000 2.440000 408.301000
57.948000 2.436000 407.621000
58.320000 2.432000 406.947000
58.715000 2.429000 406.451000
59.120000 2.426000 406.023000
59.492000 2.422000 405.384000
59.872000 2.419000 404.801000
60.242000 2.415000 404.166000
60.635000 2.412000 403.692000
61.008000 2.409000 403.095000
61.395000 2.406000 402.601000
61.762000 2.402000 401.977000
62.145000 2.399000 401.472000
62.502000 2.395000 400.807000
62.893000 2.392000 400.362000
63.251000 2.389000 399.721000
63.653000 2.386000 399.363000
63.994000 2.382000 398.632000
64.362000 2.379000 398.076000
64.699000 2.374000 397.341000
65.157000 2.374000 397.349000
65.475000 2.369000 396.511000
65.847000 2.366000 396.008000
66.165000 2.362000 395.195000
66.588000 2.360000 395.012000
66.955000 2.357000 394.503000
67.314000 2.354000 393.948000
67.629000 2.349000 393.152000
67.986000 2.346000 392.608000
68.344000 2.343000 392.075000
68.757000 2.342000 391.861000
69.080000 2.337000 391.142000
69.434000 2.334000 390.606000
69.761000 2.330000 389.928000
70.169000 2.329000 389.711000
70.508000 2.325000 389.108000
70.861000 2.322000 388.596000
71.196000 2.319000 387.991000
71.553000 2.316000 387.510000
71.899000 2.312000 386.978000
72.258000 2.310000 386.522000
72.614000 2.307000 386.055000
72.954000 2.304000 385.509000
73.298000 2.301000 384.987000
73.621000 2.297000 384.367000
74.025000 2.296000 384.172000
74.370000 2.293000 383.677000
74.711000 2.290000 383.166000
75.008000 2.285000 382.437000
75.410000 2.284000 382.250000
75.786000 2.282000 381.932000
76.333000 2.286000 382.476000
76.734000 2.284000 382.289000
77.384000 2.291000 383.334000
77.679000 2.286000 382.619000
98.475000 2.043000 341.936000
98.775000 2.041000 341.616000
99.073000 2.039000 341.290000
99.350000 2.037000 340.897000
99.648000 2.035000 340.579000
99.952000 2.033000 340.282000
100.254000 2.032000 339.981000
100.553000 2.030000 339.671000
100.866000 2.028000 339.412000
101.183000 2.027000 339.170000
101.489000 2.025000 338.890000
101.811000 2.024000 338.665000
102.128000 2.022000 338.428000
102.447000 2.021000 338.199000
102.761000 2.020000 337.953000
103.101000 2.019000 337.797000
103.405000 2.017000 337.523000
103.751000 2.016000 337.389000
104.082000 2.015000 337.203000
104.423000 2.014000 337.054000
104.752000 2.013000 336.870000
105.103000 2.012000 336.755000
105.428000 2.011000 336.558000
105.768000 2.010000 336.408000
106.112000 2.009000 336.275000
106.463000 2.009000 336.163000
106.815000 2.008000 336.059000
107.157000 2.007000 335.919000
107.508000 2.007000 335.812000
107.863000 2.006000 335.718000
108.224000 2.006000 335.640000
108.587000 2.005000 335.570000
108.956000 2.005000 335.521000
109.317000 2.005000 335.447000
109.675000 2.004000 335.364000
110.032000 2.004000 335.278000
110.416000 2.004000 335.275000
110.777000 2.003000 335.203000
111.170000 2.003000 335.227000
111.534000 2.003000 335.165000
111.919000 2.003000 335.166000
112.288000 2.003000 335.115000
112.687000 2.003000 335.160000
113.084000 2.003000 335.196000
113.475000 2.003000 335.212000
113.869000 2.003000 335.241000
114.257000 2.003000 335.249000
114.669000 2.004000 335.329000
115.066000 2.004000 335.362000
115.492000 2.005000 335.481000
115.884000 2.005000 335.501000
116.322000 2.006000 335.654000
116.721000 2.006000 335.692000
117.159000 2.007000 335.843000
117.581000 2.008000 335.947000
118.033000 2.009000 336.135000
118.455000 2.009000 336.239000
118.919000 2.011000 336.459000
119.362000 2.012000 336.619000
119.842000 2.013000 336.882000
120.303000 2.014000 337.090000
120.777000 2.016000 337.332000
121.285000 2.018000 337.666000
47.907000 3.008000 422.252000
48.329000 3.004000 421.702000
48.738000 3.000000 421.058000
49.165000 2.996000 420.574000
49.564000 2.991000 419.859000
49.983000 2.987000 419.330000
50.377000 2.982000 418.606000
50.799000 2.979000 418.124000
51.196000 2.974000 417.447000
51.614000 2.970000 416.949000
52.008000 2.965000 416.270000
52.415000 2.961000 415.705000
52.801000 2.956000 414.991000
53.220000 2.953000 414.537000
53.622000 2.949000 413.970000
54.022000 2.945000 413.396000
54.400000 2.940000 412.659000
54.789000 2.935000 412.025000
55.202000 2.932000 411.574000
55.616000 2.929000 411.141000
55.989000 2.924000 410.415000
56.366000 2.919000 409.729000
56.739000 2.914000 409.028000
57.168000 2.912000 408.732000
57.561000 2.908000 408.194000
57.934000 2.903000 407.519000
58.305000 2.898000 406.841000
58.688000 2.894000 406.263000
59.092000 2.891000 405.834000
59.475000 2.887000 405.265000
59.855000 2.883000 404.692000
60.223000 2.878000 404.043000
60.618000 2.875000 403.578000
60.989000 2.871000 402.973000
61.382000 2.867000 402.511000
61.747000 2.863000 401.884000
62.130000 2.859000 401.377000
62.485000 2.855000 400.697000
62.873000 2.851000 400.234000
63.231000 2.847000 399.591000
63.643000 2.845000 399.300000
63.981000 2.839000 398.549000
64.350000 2.835000 398.004000
64.684000 2.830000 397.248000
65.143000 2.830000 397.263000
65.465000 2.824000 396.449000
65.836000 2.821000 395.944000
66.155000 2.815000 395.134000
66.560000 2.813000 394.844000
66.937000 2.810000 394.395000
67.304000 2.806000 393.892000
67.620000 2.800000 393.100000
67.979000 2.797000 392.565000
68.321000 2.792000 391.944000
68.747000 2.791000 391.805000
69.072000 2.786000 391.096000
69.425000 2.782000 390.556000
69.746000 2.777000 389.843000
70.149000 2.775000 389.598000
70.493000 2.771000 389.027000
70.847000 2.768000 388.519000
71.183000 2.764000 387.918000
71.537000 2.760000 387.422000
71.882000 2.756000 386.886000
72.238000 2.753000 386.411000
72.592000 2.749000 385.935000
72.938000 2.746000 385.422000
73.283000 2.742000 384.912000
73.607000 2.738000 384.297000
74.001000 2.736000 384.051000
74.360000 2.733000 383.626000
74.702000 2.729000 383.121000
75.000000 2.724000 382.396000
75.395000 2.723000 382.173000
75.772000 2.720000 381.865000
76.328000 2.725000 382.453000
76.720000 2.723000 382.219000
77.362000 2.730000 383.221000
77.661000 2.725000 382.526000
98.416000 2.434000 341.732000
98.712000 2.432000 341.398000
99.022000 2.430000 341.114000
99.297000 2.427000 340.716000
99.589000 2.425000 340.375000
99.895000 2.423000 340.086000
100.209000 2.421000 339.828000
100.507000 2.419000 339.518000
100.810000 2.417000 339.224000
101.138000 2.415000 339.016000
101.442000 2.413000 338.734000
101.758000 2.411000 338.489000
102.080000 2.410000 338.269000
102.395000 2.408000 338.027000
102.704000 2.406000 337.766000
103.050000 2.405000 337.629000
103.355000 2.403000 337.360000
103.702000 2.402000 337.229000
104.032000 2.401000 337.044000
104.373000 2.400000 336.894000
104.703000 2.399000 336.713000
105.056000 2.398000 336.603000
105.383000 2.397000 336.415000
105.725000 2.396000 336.273000
106.066000 2.395000 336.130000
106.409000 2.394000 335.993000
106.764000 2.393000 335.897000
107.111000 2.392000 335.777000
107.450000 2.391000 335.631000
107.807000 2.390000 335.544000
108.163000 2.390000 335.451000
108.523000 2.389000 335.375000
108.899000 2.389000 335.346000
109.249000 2.388000 335.238000
109.617000 2.388000 335.186000
109.965000 2.387000 335.074000
110.373000 2.388000 335.143000
110.730000 2.387000 335.059000
111.113000 2.387000 335.055000
111.480000 2.387000 335.003000
111.869000 2.387000 335.015000
112.237000 2.386000 334.964000
112.626000 2.386000 334.978000
113.023000 2.387000 335.016000
113.412000 2.387000 335.028000
113.808000 2.387000 335.061000
114.190000 2.387000 335.051000
114.618000 2.388000 335.179000
115.011000 2.388000 335.202000
115.424000 2.389000 335.285000
115.807000 2.389000 335.277000
116.257000 2.390000 335.465000
116.659000 2.390000 335.514000
117.076000 2.391000 335.605000
117.513000 2.392000 335.753000
117.946000 2.393000 335.887000
118.380000 2.394000 336.026000
118.842000 2.395000 336.241000
119.264000 2.396000 336.340000
119.743000 2.398000 336.604000
120.229000 2.400000 336.882000
120.709000 2.402000 337.142000
121.190000 2.404000 337.403000
47.892000 3.492000 422.118000
48.312000 3.487000 421.555000
48.719000 3.482000 420.892000
49.149000 3.478000 420.437000
49.548000 3.472000 419.729000
49.964000 3.467000 419.172000
50.360000 3.462000 418.459000
50.780000 3.458000 417.966000
51.180000 3.452000 417.312000
51.596000 3.448000 416.804000
51.991000 3.442000 416.132000
52.397000 3.438000 415.567000
52.782000 3.432000 414.838000
53.191000 3.427000 414.314000
53.594000 3.423000 413.754000
54.004000 3.419000 413.256000
54.385000 3.413000 412.544000
54.773000 3.407000 411.900000
55.171000 3.403000 411.340000
55.599000 3.400000 411.011000
55.974000 3.394000 410.305000
56.352000 3.389000 409.625000
56.724000 3.383000 408.917000
57.136000 3.379000 408.505000
57.545000 3.376000 408.077000
57.918000 3.370000 407.405000
58.289000 3.365000 406.733000
58.657000 3.359000 406.050000
59.068000 3.356000 405.667000
59.459000 3.352000 405.157000
59.838000 3.347000 404.572000
60.206000 3.341000 403.928000
60.595000 3.337000 403.427000
60.965000 3.332000 402.810000
61.358000 3.328000 402.357000
61.725000 3.323000 401.739000
62.111000 3.319000 401.252000
62.465000 3.314000 400.564000
62.846000 3.309000 400.065000
63.199000 3.304000 399.390000
63.622000 3.302000 399.171000
63.962000 3.296000 398.433000
64.332000 3.291000 397.892000
64.669000 3.285000 397.151000
65.099000 3.284000 396.994000
65.445000 3.279000 396.331000
65.821000 3.275000 395.855000
66.140000 3.268000 395.042000
66.507000 3.264000 394.531000
66.890000 3.260000 394.118000
67.289000 3.258000 393.803000
67.605000 3.251000 393.016000
67.963000 3.247000 392.477000
68.277000 3.240000 391.693000
68.730000 3.240000 391.711000
69.054000 3.234000 390.995000
69.401000 3.230000 390.423000
69.724000 3.224000 389.722000
70.118000 3.221000 389.423000
70.473000 3.217000 388.917000
70.828000 3.213000 388.417000
71.161000 3.208000 387.799000
71.510000 3.204000 387.276000
71.856000 3.199000 386.745000
72.211000 3.195000 386.272000
72.565000 3.191000 385.793000
72.913000 3.187000 385.289000
73.257000 3.183000 384.776000
73.578000 3.178000 384.143000
73.934000 3.174000 383.700000
74.304000 3.171000 383.338000
74.670000 3.168000 382.958000
74.974000 3.162000 382.267000
75.352000 3.160000 381.955000
75.730000 3.157000 381.649000
76.310000 3.163000 382.361000
76.668000 3.160000 381.957000
77.336000 3.169000 383.093000
98.364000 2.825000 341.552000
98.646000 2.822000 341.171000
98.953000 2.820000 340.877000
99.239000 2.817000 340.518000
99.533000 2.814000 340.184000
99.838000 2.812000 339.894000
100.157000 2.810000 339.652000
100.458000 2.807000 339.351000
100.757000 2.805000 339.045000
101.083000 2.803000 338.833000
101.393000 2.801000 338.570000
101.707000 2.799000 338.322000
102.027000 2.797000 338.092000
102.353000 2.795000 337.889000
102.664000 2.793000 337.636000
103.007000 2.792000 337.488000
103.312000 2.790000 337.221000
103.646000 2.788000 337.047000
103.977000 2.787000 336.863000
104.320000 2.785000 336.723000
104.645000 2.784000 336.525000
104.993000 2.783000 336.402000
105.328000 2.781000 336.239000
105.676000 2.780000 336.117000
106.020000 2.779000 335.984000
106.361000 2.778000 335.842000
106.705000 2.777000 335.710000
107.064000 2.776000 335.628000
107.403000 2.775000 335.482000
107.753000 2.774000 335.374000
108.119000 2.774000 335.315000
108.463000 2.773000 335.188000
108.847000 2.773000 335.186000
109.185000 2.772000 335.043000
109.564000 2.771000 335.024000
109.907000 2.770000 334.897000
110.310000 2.771000 334.954000
110.672000 2.770000 334.883000
111.057000 2.770000 334.885000
111.421000 2.770000 334.825000
111.809000 2.770000 334.836000
112.184000 2.770000 334.808000
112.576000 2.770000 334.829000
112.967000 2.770000 334.847000
113.343000 2.770000 334.823000
113.752000 2.770000 334.896000
114.132000 2.770000 334.882000
114.559000 2.771000 335.006000
114.933000 2.771000 334.975000
115.361000 2.772000 335.100000
115.733000 2.772000 335.065000
116.193000 2.774000 335.282000
116.580000 2.774000 335.288000
117.020000 2.775000 335.445000
117.452000 2.776000 335.580000
117.871000 2.777000 335.674000
118.297000 2.778000 335.790000
118.760000 2.780000 336.009000
119.193000 2.781000 336.141000
119.657000 2.782000 336.361000
120.143000 2.785000 336.641000
120.616000 2.787000 336.881000
121.109000 2.789000 337.178000
121.558000 2.791000 337.350000
41.084000 4.070000 432.086000
41.529000 4.065000 431.558000
41.944000 4.058000 430.727000
42.383000 4.052000 430.164000
42.807000 4.046000 429.462000
43.259000 4.042000 429.048000
43.670000 4.034000 428.255000
44.098000 4.029000 427.631000
44.504000 4.021000 426.820000
44.963000 4.018000 426.518000
45.378000 4.011000 425.823000
47.876000 3.975000 421.982000
48.295000 3.970000 421.405000
48.697000 3.963000 420.703000
49.129000 3.959000 420.263000
49.532000 3.953000 419.593000
49.949000 3.948000 419.045000
50.344000 3.941000 418.329000
50.766000 3.936000 417.850000
51.167000 3.930000 417.206000
51.580000 3.925000 416.677000
51.977000 3.919000 416.022000
52.384000 3.914000 415.464000
52.771000 3.907000 414.750000
53.170000 3.901000 414.150000
53.574000 3.896000 413.597000
53.991000 3.892000 413.155000
54.371000 3.885000 412.443000
54.759000 3.879000 411.794000
55.144000 3.873000 411.138000
55.571000 3.870000 410.805000
55.960000 3.864000 410.200000
56.337000 3.858000 409.520000
56.709000 3.851000 408.811000
57.107000 3.846000 408.297000
57.528000 3.843000 407.959000
57.903000 3.837000 407.303000
58.277000 3.831000 406.650000
58.644000 3.824000 405.957000
59.048000 3.820000 405.529000
59.447000 3.816000 405.076000
59.824000 3.810000 404.480000
60.190000 3.804000 403.819000
60.578000 3.799000 403.312000
60.947000 3.794000 402.690000
61.341000 3.789000 402.247000
61.708000 3.784000 401.626000
62.096000 3.779000 401.155000
62.449000 3.773000 400.467000
62.830000 3.768000 399.960000
63.177000 3.761000 399.250000
63.600000 3.759000 399.029000
63.948000 3.753000 398.345000
64.321000 3.748000 397.823000
64.655000 3.741000 397.068000
65.071000 3.738000 396.827000
65.417000 3.732000 396.161000
65.809000 3.728000 395.780000
66.126000 3.721000 394.963000
66.490000 3.716000 394.431000
66.855000 3.711000 393.912000
67.278000 3.709000 393.742000
67.595000 3.702000 392.953000
67.951000 3.697000 392.405000
68.264000 3.689000 391.617000
68.707000 3.689000 391.577000
69.042000 3.683000 390.931000
69.389000 3.677000 390.358000
69.712000 3.671000 389.657000
70.088000 3.667000 389.259000
70.446000 3.662000 388.769000
70.810000 3.658000 388.314000
71.146000 3.652000 387.714000
71.489000 3.647000 387.164000
71.840000 3.643000 386.661000
72.195000 3.638000 386.184000
72.547000 3.633000 385.700000
72.895000 3.629000 385.198000
73.245000 3.624000 384.709000
73.563000 3.618000 384.065000
73.911000 3.614000 383.580000
96.910000 3.235000 343.348000
97.180000 3.230000 342.910000
97.447000 3.226000 342.465000
97.741000 3.223000 342.116000
98.026000 3.219000 341.741000
98.316000 3.216000 341.385000
98.599000 3.212000 341.006000
98.895000 3.209000 340.678000
99.191000 3.206000 340.352000
99.488000 3.203000 340.030000
99.785000 3.200000 339.712000
100.103000 3.198000 339.470000
100.412000 3.195000 339.197000
100.711000 3.193000 338.892000
101.030000 3.190000 338.655000
101.349000 3.188000 338.423000
101.656000 3.186000 338.152000
101.976000 3.183000 337.925000
102.313000 3.182000 337.755000
102.620000 3.179000 337.491000
102.966000 3.178000 337.354000
103.281000 3.176000 337.118000
103.605000 3.174000 336.914000
103.929000 3.172000 336.710000
104.277000 3.171000 336.586000
104.599000 3.169000 336.377000
104.948000 3.168000 336.258000
105.278000 3.166000 336.079000
105.632000 3.165000 335.976000
105.974000 3.164000 335.840000
106.316000 3.162000 335.700000
106.651000 3.161000 335.541000
107.014000 3.160000 335.472000
107.362000 3.159000 335.357000
107.709000 3.158000 335.238000
108.078000 3.158000 335.189000
108.420000 3.156000 335.054000
108.809000 3.157000 335.068000
109.141000 3.155000 334.908000
109.529000 3.155000 334.917000
109.867000 3.154000 334.774000
110.259000 3.154000 334.798000
110.617000 3.153000 334.719000
111.003000 3.153000 334.723000
111.365000 3.153000 334.657000
111.751000 3.153000 334.662000
112.135000 3.153000 334.661000
112.530000 3.153000 334.693000
112.918000 3.153000 334.702000
113.295000 3.153000 334.681000
113.695000 3.153000 334.729000
114.079000 3.153000 334.726000
114.507000 3.154000 334.854000
114.877000 3.154000 334.811000
115.313000 3.156000 334.962000
115.684000 3.155000 334.922000
116.137000 3.157000 335.120000
116.528000 3.157000 335.139000
116.959000 3.158000 335.270000
117.365000 3.159000 335.331000
