186.043 -80.407 405.247
186.479 -80.395 405.184
186.826 -80.344 404.928
187.326 -80.359 405.004
187.693 -80.317 404.791
188.120 -80.301 404.712
188.513 -80.271 404.557
188.930 -80.250 404.456
189.349 -80.231 404.359
189.737 -80.199 404.196
190.144 -80.175 404.075
190.523 -80.139 403.895
190.954 -80.125 403.826
191.328 -80.088 403.635
191.788 -80.086 403.629
192.147 -80.043 403.409
192.586 -80.033 403.359
192.943 -79.989 403.136
193.397 -79.985 403.118
193.771 -79.948 402.934
194.195 -79.932 402.852
194.613 -79.914 402.760
195.007 -79.886 402.619
195.419 -79.865 402.515
195.816 -79.839 402.381
196.225 -79.817 402.273
196.618 -79.789 402.132
197.008 -79.760 401.986
197.402 -79.733 401.849
197.820 -79.715 401.760
198.207 -79.685 401.608
198.651 -79.679 401.575
199.036 -79.648 401.420
199.448 -79.629 401.322
199.849 -79.605 401.202
200.252 -79.582 401.086
200.659 -79.561 400.981
201.032 -79.526 400.807
201.477 -79.520 400.776
201.841 -79.482 400.585
202.280 -79.474 400.544
202.654 -79.440 400.374
203.040 -79.411 400.228
203.460 -79.396 400.150
203.863 -79.374 400.039
204.268 -79.353 399.932
204.664 -79.329 399.810
205.074 -79.310 399.714
205.462 -79.282 399.576
205.884 -79.268 399.505
206.244 -79.230 399.312
206.663 -79.215 399.236
206.992 -79.165 398.987
207.479 -79.176 399.043
207.862 -79.148 398.898
208.264 -79.126 398.791
208.624 -79.089 398.604
208.997 -79.057 398.441
209.403 -79.038 398.345
209.804 -79.016 398.237
210.231 -79.005 398.180
210.600 -78.972 398.014
211.033 -78.963 397.968
211.383 -78.923 397.766
211.829 -78.919 397.747
212.177 -78.879 397.543
212.610 -78.870 397.499
212.998 -78.845 397.371
213.406 -78.827 397.281
213.810 -78.808 397.184
214.160 -78.769 396.988
214.567 -78.751 396.898
214.935 -78.718 396.735
215.347 -78.703 396.655
215.728 -78.675 396.517
216.153 -78.664 396.463
216.518 -78.632 396.298
216.916 -78.611 396.194
217.288 -78.581 396.043
217.705 -78.567 395.973
218.103 -78.547 395.871
218.475 -78.517 395.721
218.914 -78.512 395.693
219.294 -78.485 395.560
219.731 -78.479 395.529
220.024 -78.422 395.239
220.419 -78.401 395.132
220.809 -78.378 395.018
221.217 -78.362 394.938
221.608 -78.340 394.826
222.026 -78.327 394.764
222.403 -78.300 394.628
222.816 -78.286 394.556
223.215 -78.268 394.462
223.543 -78.224 394.241
-130.779 -98.890 501.301
-130.165 -98.861 501.153
-129.517 -98.806 500.871
-128.923 -98.792 500.801
-128.295 -98.751 500.593
-127.697 -98.733 500.501
-127.041 -98.670 500.182
-126.442 -98.651 500.086
-125.816 -98.610 499.878
-125.180 -98.561 499.631
-124.587 -98.546 499.555
-123.929 -98.479 499.215
-123.334 -98.461 499.125
-122.711 -98.422 498.924
-122.085 -98.378 498.705
-121.495 -98.364 498.633
-120.865 -98.318 498.398
-120.262 -98.293 498.270
-119.633 -98.246 498.035
-119.019 -98.211 497.856
-118.393 -98.166 497.629
-117.809 -98.156 497.576
-117.179 -98.106 497.325
-116.573 -98.077 497.178
-115.971 -98.051 497.045
-115.307 -97.971 496.642
-114.736 -97.971 496.642
-114.109 -97.923 496.395
-113.511 -97.899 496.273
-112.900 -97.863 496.091
-112.289 -97.826 495.907
-111.679 -97.791 495.730
-111.095 -97.778 495.662
-110.460 -97.720 495.366
-109.852 -97.685 495.191
-109.259 -97.663 495.079
-108.647 -97.624 494.882
-108.047 -97.595 494.735
-107.415 -97.537 494.440
-106.787 -97.482 494.163
-106.223 -97.486 494.180
-105.586 -97.421 493.854
-104.991 -97.395 493.721
-104.354 -97.330 493.390
-103.764 -97.308 493.280
-103.140 -97.254 493.006
-102.553 -97.234 492.903
-101.916 -97.166 492.561
-101.348 -97.164 492.550
-100.729 -97.113 492.289
-100.127 -97.077 492.109
-99.546 -97.061 492.028
-98.917 -96.998 491.709
-98.342 -96.988 491.658
-97.736 -96.947 491.452
-97.115 -96.890 491.161
-96.526 -96.866 491.037
-95.925 -96.828 490.845
-95.335 -96.801 490.709
-94.727 -96.755 490.478
-94.150 -96.741 490.407
-93.524 -96.676 490.075
-92.974 -96.690 490.145
-92.336 -96.611 489.748
-91.767 -96.604 489.710
-91.174 -96.571 489.546
-90.580 -96.538 489.376
-90.002 -96.520 489.286
-89.407 -96.484 489.103
-88.820 -96.457 488.964
-88.202 -96.395 488.653
-87.621 -96.373 488.539
-87.016 -96.324 488.293
-86.436 -96.303 488.186
-85.827 -96.248 487.908
-85.230 -96.207 487.697
-84.624 -96.155 487.434
-84.023 -96.107 487.192
-83.451 -96.093 487.121
-82.844 -96.038 486.841
-82.254 -96.002 486.658
-81.652 -95.951 486.400
-81.088 -95.945 486.371
-80.506 -95.917 486.228
-79.920 -95.884 486.059
-79.294 -95.801 485.639
-78.719 -95.780 485.533
-78.160 -95.778 485.525
-77.583 -95.755 485.404
-77.018 -95.744 485.353
-76.421 -95.695 485.102
-75.860 -95.690 485.078
-75.248 -95.620 484.724
-74.677 -95.602 484.629
-74.089 -95.561 484.425
-73.510 -95.531 484.273
-72.926 -95.495 484.089
-72.350 -95.468 483.953
-71.752 -95.412 483.670
-71.175 -95.383 483.523
-70.603 -95.361 483.408
-70.010 -95.310 483.149
-69.446 -95.296 483.082
-68.844 -95.231 482.749
-68.280 -95.218 482.685
-67.697 -95.177 482.477
-67.115 -95.137 482.273
-66.538 -95.105 482.110
-65.959 -95.067 481.921
-65.380 -95.030 481.731
-64.811 -95.007 481.613
-64.244 -94.987 481.512
-63.659 -94.938 481.266
-63.092 -94.917 481.158
-62.496 -94.851 480.825
-61.950 -94.861 480.874
-61.352 -94.790 480.514
-60.788 -94.770 480.414
-60.212 -94.732 480.220
-59.653 -94.720 480.159
-59.085 -94.693 480.025
-58.526 -94.681 479.963
-57.929 -94.606 479.580
-57.377 -94.604 479.571
-56.796 -94.553 479.316
-56.208 -94.490 478.995
-55.652 -94.479 478.938
-55.060 -94.408 478.579
-54.506 -94.400 478.537
-53.928 -94.350 478.286
-53.354 -94.307 478.067
-52.790 -94.280 477.929
-52.220 -94.241 477.731
-51.648 -94.198 477.515
-51.089 -94.178 477.414
-50.524 -94.147 477.256
-49.957 -94.112 477.078
-49.404 -94.102 477.029
-48.824 -94.040 476.711
-48.274 -94.034 476.680
-47.697 -93.975 476.386
-47.137 -93.949 476.253
-46.572 -93.913 476.071
-46.004 -93.870 475.852
-45.436 -93.826 475.627
-44.895 -93.835 475.676
-44.322 -93.780 475.396
-43.769 -93.764 475.316
-43.201 -93.717 475.073
-42.641 -93.684 474.909
-42.085 -93.660 474.787
-41.523 -93.623 474.600
-40.963 -93.589 474.427
-40.397 -93.540 474.179
-39.850 -93.532 474.140
-39.290 -93.497 473.961
-38.734 -93.468 473.814
-38.167 -93.411 473.523
-37.617 -93.397 473.453
-37.047 -93.330 473.113
-36.501 -93.323 473.080
-35.940 -93.276 472.840
-35.386 -93.248 472.699
-34.831 -93.214 472.525
-34.276 -93.182 472.365
-33.721 -93.147 472.186
-33.171 -93.125 472.073
-32.618 -93.092 471.906
-32.069 -93.073 471.812
-31.514 -93.034 471.613
-30.960 -92.995 471.414
-30.411 -92.972 471.301
-29.851 -92.914 471.005
-29.308 -92.906 470.963
-28.753 -92.860 470.730
-28.204 -92.834 470.602
-27.654 -92.802 470.437
-27.105 -92.770 470.276
-26.552 -92.724 470.043
-26.005 -92.699 469.915
-25.453 -92.654 469.686
-24.909 -92.638 469.606
-24.360 -92.601 469.420
-23.812 -92.565 469.237
-23.271 -92.555 469.185
-22.719 -92.504 468.926
-22.178 -92.491 468.859
-21.629 -92.447 468.637
-21.082 -92.409 468.445
-20.536 -92.370 468.249
-19.994 -92.352 468.154
-19.447 -92.303 467.910
-18.905 -92.282 467.799
-18.356 -92.223 467.503
-17.819 -92.224 467.505
-17.272 -92.169 467.227
-16.732 -92.149 467.129
-16.189 -92.113 466.944
-15.650 -92.097 466.864
-15.105 -92.042 466.585
-14.567 -92.026 466.503
-14.022 -91.962 466.181
-13.480 -91.922 465.975
-12.940 -91.883 465.777
-12.402 -91.859 465.656
-11.865 -91.842 465.571
-11.329 -91.829 465.507
-10.791 -91.806 465.386
-10.253 -91.770 465.207
-9.715 -91.734 465.024
-9.179 -91.709 464.897
-8.641 -91.665 464.674
-8.105 -91.638 464.536
-7.569 -91.609 464.389
-7.033 -91.569 464.188
-6.498 -91.548 464.081
-5.963 -91.508 463.877
-5.430 -91.512 463.898
-4.896 -91.476 463.715
-4.361 -91.442 463.545
-3.827 -91.394 463.301
-3.294 -91.370 463.180
-2.761 -91.337 463.008
-2.230 -91.326 462.956
-1.697 -91.266 462.648
-1.166 -91.273 462.687
-0.634 -91.220 462.417
-0.103 -91.199 462.312
0.428 -91.153 462.078
0.958 -91.134 461.981
1.488 -91.094 461.779
2.018 -91.068 461.650
2.546 -91.017 461.391
3.076 -91.004 461.321
3.603 -90.958 461.092
4.132 -90.942 461.009
4.659 -90.899 460.789
5.187 -90.876 460.674
5.713 -90.834 460.460
6.240 -90.803 460.306
6.766 -90.773 460.152
7.293 -90.748 460.024
7.817 -90.696 459.763
8.343 -90.685 459.705
8.867 -90.646 459.506
9.394 -90.634 459.445
9.917 -90.591 459.231
10.440 -90.552 459.031
10.965 -90.541 458.977
11.484 -90.475 458.639
12.006 -90.443 458.481
12.527 -90.404 458.283
13.051 -90.387 458.193
13.573 -90.357 458.045
14.094 -90.329 457.899
14.615 -90.294 457.725
15.138 -90.283 457.670
15.654 -90.226 457.380
16.178 -90.217 457.335
16.694 -90.169 457.088
17.215 -90.149 456.991
17.731 -90.105 456.767
18.250 -90.078 456.631
18.765 -90.034 456.404
19.288 -90.031 456.390
19.799 -89.971 456.084
20.327 -89.988 456.171
20.836 -89.924 455.847
21.358 -89.918 455.817
21.869 -89.867 455.561
22.389 -89.857 455.508
22.902 -89.818 455.309
23.418 -89.790 455.171
23.935 -89.768 455.059
24.454 -89.757 455.003
24.963 -89.707 454.747
25.481 -89.694 454.682
25.988 -89.642 454.418
26.504 -89.621 454.312
27.011 -89.573 454.070
27.527 -89.553 453.968
28.037 -89.520 453.798
28.553 -89.503 453.712
29.062 -89.466 453.526
29.572 -89.434 453.365
30.079 -89.392 453.151
30.594 -89.377 453.075
31.101 -89.339 452.881
31.616 -89.324 452.806
32.122 -89.286 452.613
32.634 -89.265 452.510
33.143 -89.236 452.359
33.647 -89.195 452.154
34.153 -89.160 451.977
34.665 -89.142 451.885
35.172 -89.112 451.732
35.689 -89.108 451.711
36.187 -89.057 451.453
36.696 -89.035 451.341
37.192 -88.981 451.066
37.700 -88.959 450.958
38.198 -88.913 450.725
38.705 -88.888 450.596
39.207 -88.853 450.416
39.718 -88.839 450.348
40.210 -88.784 450.071
40.728 -88.786 450.080
41.219 -88.731 449.801
41.730 -88.718 449.737
42.219 -88.661 449.448
42.724 -88.639 449.334
43.222 -88.602 449.145
43.731 -88.588 449.074
44.227 -88.549 448.876
44.731 -88.525 448.757
45.223 -88.481 448.535
45.733 -88.470 448.479
46.220 -88.417 448.210
46.727 -88.403 448.138
47.220 -88.363 447.936
47.723 -88.342 447.828
48.219 -88.308 447.658
48.714 -88.274 447.482
49.206 -88.234 447.281
49.711 -88.218 447.202
50.205 -88.185 447.034
50.711 -88.172 446.965
51.194 -88.120 446.702
51.703 -88.114 446.671
52.188 -88.066 446.430
52.691 -88.050 446.350
53.186 -88.021 446.201
53.689 -88.007 446.129
54.174 -87.962 445.904
54.674 -87.942 445.801
55.159 -87.900 445.587
55.665 -87.890 445.537
56.143 -87.837 445.271
56.660 -87.847 445.318
57.136 -87.793 445.043
57.636 -87.775 444.956
58.117 -87.731 444.729
58.617 -87.714 444.645
59.097 -87.670 444.420
59.601 -87.660 444.370
60.085 -87.622 444.180
60.581 -87.601 444.072
61.060 -87.556 443.846
61.559 -87.542 443.775
62.043 -87.505 443.586
62.543 -87.493 443.523
63.024 -87.454 443.327
63.514 -87.427 443.190
64.003 -87.400 443.054
64.479 -87.355 442.826
64.972 -87.335 442.722
65.454 -87.300 442.548
65.935 -87.264 442.362
66.431 -87.248 442.284
66.915 -87.217 442.124
67.402 -87.190 441.989
67.878 -87.150 441.784
68.364 -87.123 441.649
68.853 -87.100 441.530
69.323 -87.053 441.293
69.806 -87.024 441.145
70.296 -87.003 441.041
70.785 -86.982 440.936
71.268 -86.953 440.787
71.743 -86.915 440.595
72.233 -86.896 440.499
72.703 -86.854 440.283
73.203 -86.847 440.250
73.679 -86.812 440.074
74.152 -86.775 439.885
74.634 -86.747 439.743
75.106 -86.710 439.554
75.606 -86.704 439.526
76.063 -86.649 439.248
76.546 -86.625 439.126
77.014 -86.585 438.920
77.510 -86.576 438.875
77.971 -86.528 438.632
78.469 -86.523 438.605
78.921 -86.466 438.317
79.408 -86.448 438.225
79.881 -86.415 438.058
80.385 -86.416 438.063
80.828 -86.352 437.741
81.333 -86.355 437.755
81.788 -86.304 437.499
82.266 -86.279 437.370
82.744 -86.253 437.239
83.232 -86.239 437.168
83.697 -86.201 436.974
84.181 -86.182 436.881
84.646 -86.146 436.694
85.122 -86.119 436.562
85.592 -86.089 436.405
86.080 -86.075 436.334
86.553 -86.047 436.193
87.036 -86.030 436.106
87.494 -85.987 435.891
87.963 -85.957 435.737
88.438 -85.932 435.614
88.918 -85.912 435.510
89.389 -85.884 435.370
89.849 -85.846 435.176
90.322 -85.821 435.051
90.788 -85.790 434.890
91.264 -85.767 434.776
91.733 -85.739 434.632
92.205 -85.714 434.505
92.664 -85.677 434.319
93.143 -85.659 434.225
93.593 -85.614 434.001
94.098 -85.621 434.034
94.542 -85.571 433.783
95.025 -85.558 433.713
95.453 -85.495 433.397
95.955 -85.499 433.415
96.385 -85.439 433.110
96.888 -85.444 433.139
97.324 -85.390 432.865
97.793 -85.365 432.739
98.261 -85.340 432.611
98.712 -85.301 432.411
99.184 -85.279 432.303
99.646 -85.250 432.155
100.115 -85.227 432.037
100.582 -85.203 431.915
101.047 -85.176 431.781
101.513 -85.151 431.653
101.964 -85.114 431.465
102.424 -85.085 431.318
102.895 -85.065 431.214
103.350 -85.032 431.049
103.820 -85.011 430.944
104.275 -84.979 430.780
104.744 -84.958 430.675
105.199 -84.926 430.513
105.666 -84.904 430.401
106.109 -84.863 430.195
106.590 -84.853 430.142
107.029 -84.809 429.918
107.501 -84.792 429.831
107.958 -84.763 429.686
108.430 -84.747 429.602
108.869 -84.704 429.389
109.357 -84.700 429.367
109.774 -84.642 429.071
110.256 -84.633 429.029
110.697 -84.594 428.830
111.169 -84.579 428.750
111.612 -84.541 428.562
112.069 -84.515 428.427
112.534 -84.495 428.327
112.979 -84.460 428.149
113.459 -84.451 428.105
113.895 -84.409 427.893
114.361 -84.391 427.799
114.800 -84.353 427.606
115.275 -84.341 427.548
115.707 -84.298 427.328
116.185 -84.289 427.284
116.626 -84.253 427.100
117.085 -84.230 426.985
117.528 -84.196 426.813
117.997 -84.182 426.739
118.432 -84.143 426.541
118.911 -84.135 426.501
119.341 -84.092 426.286
119.820 -84.086 426.252
120.254 -84.047 426.055
120.719 -84.030 425.968
121.133 -83.978 425.704
121.624 -83.979 425.711
122.055 -83.939 425.510
122.508 -83.915 425.387
122.955 -83.887 425.244
123.392 -83.852 425.068
123.860 -83.838 424.998
124.289 -83.798 424.796
124.766 -83.791 424.759
125.191 -83.749 424.548
125.668 -83.742 424.512
126.089 -83.698 424.286
126.555 -83.684 424.218
126.984 -83.646 424.023
127.447 -83.630 423.944
127.884 -83.597 423.777
128.351 -83.585 423.713
128.795 -83.557 423.572
129.237 -83.529 423.428
129.680 -83.501 423.287
130.124 -83.474 423.149
130.564 -83.444 423.000
131.021 -83.426 422.908
131.460 -83.397 422.759
131.906 -83.372 422.634
132.350 -83.346 422.502
132.793 -83.319 422.366
133.233 -83.291 422.225
133.672 -83.262 422.078
134.120 -83.240 421.965
134.528 -83.193 421.725
135.007 -83.189 421.708
135.422 -83.146 421.491
135.901 -83.143 421.475
136.302 -83.093 421.219
136.766 -83.081 421.159
137.193 -83.047 420.985
137.642 -83.026 420.881
138.077 -82.997 420.732
138.517 -82.971 420.602
138.964 -82.950 420.492
139.395 -82.919 420.337
139.855 -82.905 420.269
140.266 -82.863 420.055
140.716 -82.844 419.957
141.142 -82.811 419.792
141.580 -82.785 419.660
142.015 -82.758 419.521
142.471 -82.743 419.448
142.882 -82.702 419.239
143.345 -82.692 419.187
143.754 -82.650 418.974
144.221 -82.642 418.934
144.641 -82.607 418.756
145.094 -82.591 418.676
145.506 -82.552 418.478
145.971 -82.544 418.435
146.375 -82.500 418.215
146.834 -82.488 418.155
147.259 -82.458 417.999
147.717 -82.446 417.938
148.151 -82.420 417.808
148.562 -82.381 417.613
149.012 -82.365 417.530
149.406 -82.318 417.292
149.895 -82.324 417.319
150.273 -82.268 417.038
150.734 -82.258 416.989
151.140 -82.219 416.790
151.607 -82.213 416.757
152.022 -82.178 416.583
152.460 -82.156 416.472
152.880 -82.125 416.315
153.323 -82.106 416.219
153.755 -82.082 416.094
154.181 -82.054 415.954
154.623 -82.035 415.859
155.033 -82.000 415.677
155.461 -81.974 415.547
155.877 -81.942 415.383
156.319 -81.923 415.291
156.726 -81.887 415.106
157.181 -81.876 415.049
157.576 -81.833 414.834
158.040 -81.827 414.802
158.447 -81.791 414.620
158.900 -81.779 414.560
159.312 -81.747 414.394
159.752 -81.728 414.301
160.182 -81.705 414.182
160.574 -81.662 413.967
161.019 -81.647 413.890
161.425 -81.612 413.711
161.883 -81.603 413.668
162.288 -81.568 413.490
162.733 -81.553 413.414
163.154 -81.526 413.277
163.599 -81.511 413.203
163.997 -81.473 413.009
164.429 -81.453 412.904
164.837 -81.420 412.738
165.269 -81.399 412.633
165.678 -81.367 412.472
166.132 -81.358 412.423
166.552 -81.332 412.292
166.970 -81.305 412.155
167.392 -81.280 412.029
167.811 -81.254 411.896
168.245 -81.235 411.800
168.668 -81.211 411.678
169.109 -81.196 411.601
169.488 -81.151 411.373
169.949 -81.145 411.346
170.332 -81.103 411.132
170.762 -81.083 411.030
171.175 -81.055 410.886
171.595 -81.030 410.763
172.009 -81.003 410.625
172.446 -80.987 410.543
172.842 -80.952 410.365
173.273 -80.933 410.269
173.669 -80.898 410.091
174.092 -80.876 409.980
174.493 -80.844 409.817
174.920 -80.823 409.714
175.359 -80.809 409.640
175.749 -80.772 409.453
176.181 -80.754 409.364
176.566 -80.715 409.166
177.019 -80.708 409.128
177.404 -80.669 408.933
177.836 -80.652 408.847
178.241 -80.623 408.699
178.649 -80.595 408.558
179.069 -80.573 408.447
179.494 -80.554 408.347
179.912 -80.530 408.230
180.324 -80.506 408.103
180.696 -80.462 407.884
181.143 -80.453 407.837
181.553 -80.427 407.705
181.942 -80.392 407.527
182.411 -80.393 407.531
182.795 -80.356 407.344
183.228 -80.340 407.266
183.623 -80.308 407.104
184.033 -80.284 406.978
184.461 -80.266 406.891
184.883 -80.247 406.792
185.308 -80.228 406.699
185.703 -80.197 406.542
186.127 -80.179 406.447
186.501 -80.139 406.246
186.913 -80.116 406.127
187.350 -80.103 406.063
187.753 -80.076 405.928
188.145 -80.045 405.767
188.579 -80.031 405.698
188.968 -79.998 405.533
189.403 -79.986 405.468
189.783 -79.950 405.286
190.189 -79.925 405.159
190.603 -79.903 405.049
190.987 -79.869 404.879
191.414 -79.854 404.799
191.794 -79.818 404.620
192.247 -79.813 404.594
192.605 -79.769 404.371
193.034 -79.754 404.296
193.428 -79.726 404.150
193.837 -79.703 404.036
194.245 -79.680 403.919
194.685 -79.670 403.869
195.079 -79.642 403.726
195.470 -79.612 403.574
195.892 -79.596 403.490
196.290 -79.569 403.355
196.751 -79.568 403.352
197.079 -79.513 403.074
197.515 -79.503 403.019
197.875 -79.462 402.811
198.311 -79.451 402.757
198.713 -79.427 402.635
199.136 -79.411 402.555
199.546 -79.390 402.449
199.944 -79.365 402.321
200.359 -79.346 402.226
200.749 -79.318 402.082
201.142 -79.291 401.945
201.517 -79.257 401.773
201.967 -79.252 401.749
202.335 -79.216 401.565
202.764 -79.203 401.502
203.133 -79.167 401.320
203.572 -79.159 401.276
203.929 -79.118 401.072
204.365 -79.109 401.023
204.744 -79.078 400.866
205.137 -79.052 400.734
205.553 -79.035 400.647
205.943 -79.008 400.510
206.364 -78.993 400.436
206.725 -78.955 400.245
207.104 -78.924 400.088
207.490 -78.896 399.946
207.931 -78.890 399.913
208.351 -78.875 399.836
208.746 -78.851 399.714
209.116 -78.817 399.544
209.517 -78.795 399.433
209.916 -78.773 399.321
210.268 -78.733 399.117
210.690 -78.720 399.050
211.088 -78.697 398.936
211.567 -78.705 398.975
211.883 -78.652 398.708
212.293 -78.634 398.618
212.675 -78.606 398.475
213.082 -78.588 398.381
213.488 -78.569 398.285
213.884 -78.546 398.170
214.259 -78.516 398.018
214.645 -78.490 397.886
215.050 -78.471 397.790
215.408 -78.435 397.609
215.892 -78.445 397.659
216.230 -78.402 397.440
216.690 -78.403 397.448
217.041 -78.366 397.255
217.446 -78.347 397.162
217.826 -78.320 397.023
218.206 -78.292 396.885
218.585 -78.265 396.745
218.962 -78.237 396.602
219.375 -78.222 396.527
219.822 -78.219 396.512
220.247 -78.208 396.456
220.581 -78.165 396.239
220.984 -78.147 396.146
221.325 -78.106 395.942
221.724 -78.087 395.843
222.136 -78.072 395.767
222.506 -78.042 395.616
222.890 -78.018 395.493
223.246 -77.983 395.318
223.684 -77.978 395.291
224.034 -77.942 395.106
-131.175 -98.613 502.819
-130.561 -98.585 502.678
-129.908 -98.527 502.385
-129.334 -98.530 502.396
-128.673 -98.465 502.066
-128.062 -98.439 501.932
-127.430 -98.396 501.714
-126.796 -98.351 501.484
-126.179 -98.319 501.322
-125.540 -98.269 501.069
-124.920 -98.234 500.890
-124.283 -98.185 500.639
-123.696 -98.175 500.589
-123.051 -98.119 500.305
-122.442 -98.092 500.164
-121.817 -98.051 499.956
-121.184 -98.004 499.715
-120.609 -98.002 499.706
-119.942 -97.926 499.319
-119.364 -97.922 499.299
-118.742 -97.882 499.095
-118.120 -97.842 498.889
-117.506 -97.808 498.715
-116.903 -97.782 498.585
-116.270 -97.731 498.325
-115.643 -97.685 498.089
-115.045 -97.663 497.979
-114.417 -97.615 497.733
-113.828 -97.600 497.655
-113.204 -97.555 497.427
-112.606 -97.532 497.307
-112.016 -97.515 497.224
-111.367 -97.447 496.877
-110.786 -97.437 496.826
-110.144 -97.375 496.508
-109.564 -97.365 496.459
-108.945 -97.322 496.240
-108.336 -97.287 496.058
-107.712 -97.238 495.809
-107.117 -97.214 495.688
-106.502 -97.173 495.477
-105.897 -97.139 495.307
-105.316 -97.128 495.251
-104.675 -97.061 494.910
-104.094 -97.049 494.847
-103.467 -96.994 494.566
-102.863 -96.960 494.393
-102.252 -96.919 494.182
-101.661 -96.896 494.068
-101.060 -96.864 493.903
-100.452 -96.825 493.705
-99.866 -96.806 493.609
-99.242 -96.750 493.323
-98.652 -96.728 493.208
-98.014 -96.657 492.846
-97.424 -96.633 492.726
-96.806 -96.581 492.462
-96.210 -96.550 492.303
-95.623 -96.528 492.193
-94.999 -96.469 491.887
-94.431 -96.465 491.871
-93.810 -96.407 491.576
-93.231 -96.392 491.497
-92.617 -96.341 491.238
-92.030 -96.317 491.115
-91.430 -96.279 490.919
-90.850 -96.262 490.832
-90.237 -96.209 490.565
-89.659 -96.193 490.484
-89.082 -96.178 490.408
-88.453 -96.107 490.044
-87.877 -96.092 489.968
-87.267 -96.040 489.704
-86.672 -96.003 489.515
-86.064 -95.952 489.255
-85.449 -95.893 488.951
-84.869 -95.873 488.848
-84.286 -95.848 488.721
-83.668 -95.782 488.387
-83.060 -95.728 488.109
-82.503 -95.732 488.134
-81.889 -95.670 487.814
-81.359 -95.705 487.992
-80.745 -95.642 487.671
-80.153 -95.604 487.476
-79.556 -95.558 487.244
-78.956 -95.510 486.997
-78.382 -95.491 486.904
-77.804 -95.469 486.789
-77.215 -95.431 486.597
-76.627 -95.395 486.412
-76.053 -95.375 486.312
-75.444 -95.311 485.984
-74.883 -95.307 485.965
-74.288 -95.260 485.725
-73.717 -95.242 485.635
-73.126 -95.199 485.415
-72.534 -95.154 485.185
-71.959 -95.131 485.067
-71.372 -95.091 484.862
-70.794 -95.062 484.715
-70.209 -95.024 484.520
-69.643 -95.010 484.450
-69.040 -94.946 484.125
-68.471 -94.928 484.032
-67.869 -94.864 483.706
-67.311 -94.859 483.682
-66.711 -94.797 483.362
-66.129 -94.758 483.167
-65.558 -94.735 483.048
-64.988 -94.712 482.931
-64.420 -94.692 482.831
-63.841 -94.656 482.643
-63.262 -94.618 482.453
-62.687 -94.586 482.291
-62.111 -94.553 482.121
-61.517 -94.491 481.805
-60.963 -94.490 481.799
-60.371 -94.429 481.487
-59.798 -94.398 481.330
-59.239 -94.388 481.277
-58.658 -94.342 481.044
-58.109 -94.347 481.069
-57.523 -94.292 480.790
-56.959 -94.272 480.686
-56.376 -94.221 480.425
-55.811 -94.199 480.313
-55.228 -94.145 480.038
-54.676 -94.143 480.029
-54.087 -94.077 479.693
-53.533 -94.072 479.668
-52.939 -93.995 479.276
-52.371 -93.964 479.116
-51.803 -93.930 478.945
-51.239 -93.906 478.819
-50.675 -93.879 478.682
-50.107 -93.845 478.509
-49.538 -93.807 478.315
-48.975 -93.780 478.181
-48.407 -93.745 478.000
-47.834 -93.698 477.759
-47.277 -93.680 477.668
-46.697 -93.617 477.349
-46.139 -93.598 477.251
-45.574 -93.562 477.066
-45.010 -93.528 476.895
-44.450 -93.504 476.771
-43.880 -93.455 476.521
-43.316 -93.419 476.337
-42.759 -93.397 476.223
-42.195 -93.358 476.029
-41.632 -93.323 475.848
-41.068 -93.281 475.634
-40.508 -93.250 475.476
-39.968 -93.265 475.551
-39.398 -93.208 475.262
-38.851 -93.205 475.246
-38.278 -93.139 474.910
-37.715 -93.095 474.683
-37.151 -93.047 474.439
-36.599 -93.029 474.348
-36.037 -92.985 474.125
-35.484 -92.962 474.008
-34.919 -92.907 473.725
-34.362 -92.872 473.546
-33.811 -92.851 473.443
-33.259 -92.828 473.323
-32.706 -92.800 473.183
-32.146 -92.754 472.947
-31.597 -92.735 472.849
-31.043 -92.704 472.690
-30.492 -92.677 472.552
-29.933 -92.626 472.293
-29.389 -92.623 472.277
-28.831 -92.570 472.011
-28.288 -92.566 471.990
-27.730 -92.513 471.720
-27.185 -92.502 471.664
-26.627 -92.446 471.375
-26.079 -92.421 471.250
-25.527 -92.381 471.045
-24.979 -92.357 470.925
-24.428 -92.317 470.717
-23.880 -92.289 470.577
-23.326 -92.235 470.298
-22.782 -92.220 470.222
-22.235 -92.190 470.072
-21.685 -92.145 469.843
-21.136 -92.106 469.642
-20.586 -92.055 469.384
-20.042 -92.034 469.276
-19.498 -92.007 469.140
-18.951 -91.970 468.950
-18.409 -91.952 468.856
-17.863 -91.913 468.659
-17.318 -91.875 468.467
-16.779 -91.868 468.430
-16.232 -91.818 468.175
-15.691 -91.798 468.075
-15.146 -91.755 467.854
-14.607 -91.741 467.780
-14.063 -91.695 467.547
-13.521 -91.664 467.389
-12.982 -91.644 467.287
-12.443 -91.625 467.189
-11.901 -91.584 466.979
-11.361 -91.555 466.833
-10.820 -91.515 466.629
-10.281 -91.483 466.467
-9.742 -91.450 466.296
-9.202 -91.410 466.095
-8.666 -91.395 466.016
-8.126 -91.349 465.784
-7.589 -91.323 465.649
-7.052 -91.289 465.476
-6.515 -91.255 465.302
-5.979 -91.231 465.181
-5.445 -91.224 465.144
-4.908 -91.173 464.884
-4.373 -91.152 464.776
-3.837 -91.093 464.478
-3.303 -91.081 464.417
-2.768 -91.029 464.153
-2.235 -91.004 464.026
-1.702 -90.986 463.931
-1.169 -90.964 463.822
-0.636 -90.922 463.607
-0.103 -90.901 463.498
0.429 -90.864 463.311
0.961 -90.857 463.272
1.492 -90.808 463.025
2.023 -90.772 462.842
2.554 -90.750 462.730
3.084 -90.724 462.594
3.613 -90.680 462.374
4.143 -90.646 462.196
4.672 -90.610 462.013
5.200 -90.573 461.827
5.728 -90.538 461.647
6.257 -90.519 461.549
6.784 -90.486 461.381
7.311 -90.446 461.179
7.839 -90.423 461.059
8.364 -90.384 460.863
8.892 -90.368 460.783
9.416 -90.321 460.540
9.942 -90.295 460.407
10.469 -90.277 460.319
10.994 -90.252 460.189
11.518 -90.216 460.005
12.042 -90.180 459.823
12.564 -90.138 459.607
13.089 -90.122 459.527
13.611 -90.083 459.327
14.135 -90.060 459.213
14.657 -90.030 459.059
15.179 -89.997 458.891
15.700 -89.967 458.734
16.220 -89.929 458.545
16.740 -89.895 458.370
17.262 -89.871 458.247
17.780 -89.827 458.020
18.300 -89.800 457.887
18.817 -89.757 457.666
19.337 -89.733 457.543
19.858 -89.715 457.449
20.372 -89.661 457.176
20.890 -89.633 457.034
21.411 -89.618 456.959
21.923 -89.567 456.695
22.449 -89.572 456.722
22.959 -89.516 456.439
23.482 -89.512 456.417
23.999 -89.483 456.270
24.518 -89.468 456.192
25.027 -89.415 455.922
25.547 -89.402 455.854
26.056 -89.353 455.603
26.572 -89.328 455.478
27.081 -89.282 455.245
27.603 -89.279 455.229
28.105 -89.212 454.887
28.623 -89.201 454.828
29.130 -89.153 454.586
29.647 -89.137 454.504
30.155 -89.098 454.306
30.672 -89.083 454.229
31.177 -89.037 453.996
31.697 -89.033 453.973
32.202 -88.989 453.748
32.721 -88.981 453.710
33.218 -88.919 453.392
33.743 -88.929 453.443
34.242 -88.873 453.158
34.753 -88.848 453.031
35.257 -88.808 452.825
35.769 -88.788 452.725
36.273 -88.749 452.527
36.786 -88.733 452.445
37.284 -88.683 452.190
37.798 -88.670 452.122
38.299 -88.629 451.912
38.810 -88.610 451.816
39.308 -88.565 451.586
39.815 -88.539 451.452
40.323 -88.515 451.331
40.823 -88.475 451.128
41.327 -88.445 450.975
41.836 -88.426 450.879
42.331 -88.379 450.637
42.840 -88.362 450.550
43.338 -88.323 450.352
43.848 -88.307 450.273
44.343 -88.265 450.057
44.852 -88.250 449.979
45.352 -88.216 449.808
45.854 -88.188 449.668
46.351 -88.152 449.482
46.858 -88.134 449.391
47.350 -88.090 449.167
47.858 -88.076 449.096
48.343 -88.020 448.811
48.857 -88.017 448.796
49.343 -87.966 448.531
49.854 -87.959 448.496
50.345 -87.916 448.276
50.848 -87.895 448.173
51.338 -87.853 447.959
51.846 -87.843 447.906
52.329 -87.790 447.633
52.843 -87.790 447.634
53.327 -87.740 447.383
53.838 -87.736 447.361
54.318 -87.683 447.089
54.826 -87.674 447.043
55.307 -87.622 446.779
55.809 -87.606 446.696
56.302 -87.575 446.537
56.797 -87.546 446.392
57.283 -87.507 446.191
57.785 -87.490 446.107
58.266 -87.444 445.871
58.766 -87.425 445.777
59.247 -87.381 445.548
59.751 -87.369 445.491
60.233 -87.327 445.274
60.727 -87.301 445.143
61.212 -87.263 444.951
61.706 -87.240 444.834
62.199 -87.216 444.707
62.696 -87.196 444.608
63.175 -87.153 444.389
63.674 -87.137 444.307
64.146 -87.086 444.046
64.651 -87.079 444.010
65.123 -87.028 443.753
65.626 -87.020 443.709
66.106 -86.981 443.508
66.594 -86.953 443.366
67.082 -86.926 443.228
67.567 -86.895 443.070
68.056 -86.869 442.941
68.545 -86.845 442.817
69.022 -86.806 442.617
69.513 -86.783 442.503
69.996 -86.753 442.348
70.482 -86.726 442.210
70.968 -86.699 442.074
71.442 -86.659 441.867
71.936 -86.642 441.781
72.406 -86.597 441.554
72.917 -86.602 441.577
73.386 -86.557 441.351
73.873 -86.535 441.235
74.343 -86.491 441.015
74.829 -86.468 440.897
75.303 -86.431 440.708
75.799 -86.419 440.647
76.272 -86.382 440.456
76.757 -86.358 440.336
77.228 -86.320 440.138
77.720 -86.305 440.065
78.186 -86.262 439.844
78.681 -86.251 439.787
79.141 -86.202 439.538
79.620 -86.174 439.395
80.102 -86.150 439.274
80.577 -86.118 439.112
81.041 -86.075 438.893
81.536 -86.066 438.847
82.000 -86.024 438.631
82.496 -86.017 438.594
82.959 -85.974 438.378
83.443 -85.954 438.274
83.898 -85.905 438.024
84.396 -85.900 437.997
84.857 -85.857 437.781
85.340 -85.838 437.681
85.802 -85.797 437.476
86.280 -85.772 437.349
86.757 -85.747 437.221
87.238 -85.727 437.118
87.719 -85.707 437.014
88.200 -85.687 436.911
88.676 -85.662 436.785
89.137 -85.623 436.586
89.600 -85.587 436.401
90.074 -85.560 436.266
90.550 -85.537 436.149
91.000 -85.490 435.906
91.490 -85.479 435.854
91.949 -85.440 435.655
92.433 -85.426 435.581
92.885 -85.382 435.356
93.378 -85.375 435.322
93.830 -85.331 435.099
94.323 -85.326 435.071
94.778 -85.285 434.865
95.232 -85.245 434.659
95.709 -85.225 434.556
96.179 -85.200 434.429
96.634 -85.161 434.229
97.119 -85.149 434.171
97.568 -85.105 433.947
98.049 -85.091 433.871
98.487 -85.039 433.609
98.983 -85.037 433.597
99.421 -84.986 433.340
99.911 -84.980 433.306
100.372 -84.948 433.146
100.836 -84.921 433.005
101.304 -84.896 432.878
101.762 -84.864 432.715
102.226 -84.836 432.574
102.685 -84.805 432.416
103.160 -84.787 432.326
103.610 -84.749 432.130
104.083 -84.730 432.035
104.540 -84.699 431.874
105.009 -84.677 431.764
105.452 -84.635 431.549
105.935 -84.625 431.498
106.367 -84.574 431.238
106.866 -84.577 431.255
107.298 -84.527 430.999
107.779 -84.517 430.945
108.219 -84.474 430.727
108.696 -84.460 430.658
109.138 -84.419 430.449
109.597 -84.392 430.310
110.056 -84.365 430.172
110.526 -84.347 430.081
110.991 -84.325 429.969
111.442 -84.293 429.804
111.898 -84.264 429.658
112.361 -84.242 429.545
112.807 -84.207 429.366
113.280 -84.192 429.288
113.727 -84.158 429.116
114.187 -84.134 428.992
114.634 -84.100 428.820
115.105 -84.084 428.740
115.561 -84.058 428.607
116.000 -84.019 428.410
116.483 -84.013 428.378
116.914 -83.970 428.156
117.394 -83.961 428.114
117.820 -83.914 427.874
118.317 -83.918 427.894
118.745 -83.873 427.666
119.223 -83.864 427.618
119.659 -83.826 427.423
120.128 -83.811 427.345
120.575 -83.781 427.192
121.019 -83.748 427.028
121.469 -83.720 426.884
121.912 -83.688 426.721
122.374 -83.669 426.621
122.813 -83.634 426.447
123.274 -83.615 426.348
123.710 -83.578 426.161
124.158 -83.551 426.020
124.620 -83.532 425.926
125.055 -83.497 425.744
125.502 -83.469 425.602
125.960 -83.448 425.498
126.385 -83.406 425.283
126.866 -83.401 425.258
127.284 -83.355 425.023
127.767 -83.352 425.009
128.176 -83.301 424.746
128.659 -83.298 424.729
129.087 -83.260 424.535
129.546 -83.241 424.439
129.974 -83.203 424.246
130.428 -83.182 424.137
130.866 -83.150 423.979
131.307 -83.121 423.830
131.762 -83.101 423.729
132.204 -83.073 423.586
132.663 -83.057 423.500
133.102 -83.027 423.350
133.565 -83.012 423.275
133.986 -82.972 423.071
134.430 -82.946 422.938
134.866 -82.916 422.782
135.337 -82.907 422.737
135.767 -82.873 422.566
136.230 -82.860 422.498
136.655 -82.823 422.311
137.107 -82.804 422.211
137.531 -82.767 422.024
137.994 -82.754 421.958
138.430 -82.725 421.809
138.888 -82.709 421.730
139.311 -82.673 421.543
139.769 -82.658 421.466
140.208 -82.631 421.329
140.645 -82.604 421.190
141.081 -82.576 421.047
141.504 -82.540 420.867
141.958 -82.523 420.780
142.371 -82.483 420.575
142.852 -82.482 420.570
143.247 -82.431 420.310
143.727 -82.430 420.303
144.131 -82.384 420.072
144.591 -82.372 420.010
145.006 -82.334 419.815
145.451 -82.313 419.707
145.899 -82.293 419.609
146.329 -82.265 419.462
146.773 -82.243 419.354
147.186 -82.205 419.157
147.642 -82.191 419.087
148.058 -82.155 418.902
148.497 -82.131 418.782
148.914 -82.096 418.605
149.340 -82.066 418.450
149.777 -82.042 418.329
150.222 -82.023 418.230
150.659 -82.000 418.111
151.101 -81.979 418.005
151.517 -81.944 417.829
151.975 -81.932 417.768
152.379 -81.892 417.561
152.832 -81.878 417.489
153.242 -81.841 417.300
153.692 -81.825 417.220
154.122 -81.799 417.087
154.559 -81.777 416.976
154.998 -81.756 416.868
155.420 -81.726 416.717
155.853 -81.702 416.595
156.266 -81.668 416.420
156.721 -81.656 416.357
157.124 -81.617 416.159
157.580 -81.606 416.102
157.976 -81.563 415.886
158.423 -81.547 415.805
158.832 -81.512 415.627
159.281 -81.498 415.553
159.685 -81.461 415.364
160.143 -81.451 415.314
160.553 -81.417 415.142
160.992 -81.398 415.045
161.412 -81.369 414.897
161.837 -81.344 414.767
162.273 -81.324 414.665
162.675 -81.287 414.475
163.123 -81.273 414.405
163.562 -81.254 414.310
163.942 -81.207 414.068
164.351 -81.174 413.900
164.829 -81.175 413.908
165.219 -81.134 413.696
165.672 -81.123 413.639
166.085 -81.093 413.486
166.513 -81.070 413.370
166.944 -81.049 413.262
167.381 -81.031 413.170
167.803 -81.005 413.040
168.203 -80.969 412.856
168.621 -80.942 412.721
169.050 -80.921 412.611
169.494 -80.907 412.539
169.887 -80.868 412.343
170.352 -80.864 412.321
170.719 -80.814 412.064
171.191 -80.813 412.061
171.568 -80.768 411.830
172.033 -80.765 411.813
172.435 -80.731 411.644
172.857 -80.707 411.521
173.265 -80.678 411.370
173.671 -80.647 411.212
174.116 -80.634 411.149
174.498 -80.592 410.935
174.953 -80.585 410.896
175.348 -80.549 410.717
175.779 -80.531 410.621
176.178 -80.498 410.453
176.625 -80.486 410.395
177.008 -80.446 410.191
177.461 -80.438 410.150
177.837 -80.396 409.932
178.281 -80.383 409.869
178.670 -80.347 409.682
179.105 -80.330 409.600
179.534 -80.312 409.506
179.942 -80.284 409.366
180.391 -80.275 409.318
180.740 -80.221 409.043
181.223 -80.227 409.074
181.588 -80.181 408.838
182.023 -80.166 408.760
182.399 -80.125 408.551
182.841 -80.113 408.491
183.239 -80.082 408.333
183.673 -80.067 408.255
184.060 -80.031 408.074
184.497 -80.017 408.004
184.907 -79.992 407.874
185.291 -79.956 407.690
185.720 -79.939 407.603
186.119 -79.909 407.451
186.560 -79.898 407.394
186.906 -79.846 407.128
187.401 -79.857 407.188
187.738 -79.802 406.905
188.211 -79.804 406.917
188.574 -79.760 406.692
189.009 -79.747 406.624
189.419 -79.723 406.502
189.833 -79.700 406.388
190.245 -79.678 406.272
190.629 -79.643 406.096
191.036 -79.619 405.970
191.436 -79.591 405.830
191.858 -79.573 405.736
192.247 -79.541 405.576
192.708 -79.539 405.566
193.063 -79.494 405.333
193.530 -79.494 405.335
193.879 -79.446 405.093
194.316 -79.435 405.034
194.719 -79.410 404.905
195.150 -79.396 404.833
195.554 -79.371 404.709
195.930 -79.335 404.526
196.367 -79.324 404.469
196.719 -79.279 404.237
197.162 -79.270 404.194
197.510 -79.224 403.956
197.951 -79.214 403.910
198.323 -79.178 403.723
198.766 -79.170 403.681
199.155 -79.140 403.530
199.583 -79.126 403.459
199.971 -79.096 403.306
200.402 -79.084 403.242
200.801 -79.059 403.115
201.173 -79.022 402.931
201.600 -79.009 402.860
201.958 -78.968 402.652
202.421 -78.968 402.653
202.787 -78.930 402.461
203.216 -78.918 402.397
203.599 -78.887 402.239
204.000 -78.864 402.121
204.410 -78.844 402.018
204.818 -78.823 401.914
205.216 -78.798 401.788
205.627 -78.779 401.690
206.031 -78.757 401.578
206.417 -78.729 401.433
206.855 -78.720 401.388
207.212 -78.681 401.187
207.658 -78.675 401.159
207.996 -78.628 400.922
208.409 -78.611 400.830
208.837 -78.599 400.769
209.255 -78.583 400.688
209.654 -78.560 400.571
210.037 -78.531 400.425
210.433 -78.507 400.303
210.837 -78.486 400.197
211.228 -78.461 400.068
211.632 -78.441 399.964
212.049 -78.425 399.885
212.390 -78.381 399.661
212.834 -78.376 399.634
213.185 -78.336 399.432
213.582 -78.313 399.316
213.984 -78.293 399.211
214.380 -78.270 399.094
214.801 -78.257 399.026
215.178 -78.227 398.874
215.600 -78.214 398.808
215.966 -78.181 398.639
216.395 -78.170 398.586
216.731 -78.127 398.362
217.171 -78.120 398.330
217.546 -78.091 398.179
217.964 -78.077 398.108
218.300 -78.033 397.887
218.686 -78.008 397.757
219.079 -77.985 397.643
219.445 -77.953 397.478
219.898 -77.952 397.472
220.309 -77.936 397.390
220.788 -77.944 397.431
221.135 -77.905 397.235
221.535 -77.886 397.134
221.908 -77.857 396.986
222.309 -77.837 396.888
222.685 -77.809 396.744
223.049 -77.777 396.582
223.405 -77.743 396.405
223.805 -77.724 396.309
224.245 -77.718 396.281
224.578 -77.676 396.066
-131.556 -98.320 504.280
-130.954 -98.302 504.190
-130.314 -98.257 503.955
-129.722 -98.246 503.902
-129.067 -98.188 503.604
-128.443 -98.153 503.424
-127.798 -98.102 503.162
-127.169 -98.063 502.960
-126.578 -98.052 502.905
-125.912 -97.983 502.552
-125.333 -97.982 502.546
-124.680 -97.922 502.238
-124.060 -97.888 502.063
-123.429 -97.845 501.844
-122.815 -97.815 501.689
-122.186 -97.772 501.472
-121.598 -97.763 501.422
-120.967 -97.718 501.190
-120.324 -97.663 500.911
-119.747 -97.661 500.902
-119.105 -97.607 500.624
-118.491 -97.574 500.456
-117.873 -97.539 500.274
-117.239 -97.489 500.019
-116.648 -97.475 499.947
-115.998 -97.412 499.620
-115.401 -97.391 499.517
-114.762 -97.337 499.236
-114.154 -97.307 499.084
-113.527 -97.261 498.846
-112.940 -97.248 498.782
-112.304 -97.193 498.500
-111.702 -97.168 498.371
-111.084 -97.128 498.165
-110.445 -97.069 497.865
-109.857 -97.054 497.787
-109.230 -97.005 497.536
-108.619 -96.970 497.354
-108.019 -96.943 497.220
-107.381 -96.884 496.913
-106.800 -96.874 496.865
-106.179 -96.828 496.628
-105.584 -96.805 496.510
-104.955 -96.751 496.234
-104.361 -96.728 496.115
-103.730 -96.671 495.825
-103.159 -96.670 495.817
-102.528 -96.611 495.516
-101.940 -96.593 495.425
-101.333 -96.558 495.240
-100.724 -96.519 495.042
-100.166 -96.528 495.091
-99.526 -96.459 494.735
-98.933 -96.435 494.611
-98.311 -96.382 494.341
-97.696 -96.336 494.103
-97.081 -96.289 493.861
-96.501 -96.275 493.792
-95.889 -96.230 493.560
-95.284 -96.191 493.363
-94.705 -96.179 493.300
-94.076 -96.115 492.969
-93.514 -96.119 492.993
-92.901 -96.070 492.742
-92.301 -96.035 492.558
-91.717 -96.016 492.461
-91.099 -95.961 492.179
-90.516 -95.942 492.083
-89.924 -95.913 491.936
-89.334 -95.886 491.795
-88.711 -95.823 491.473
-88.134 -95.809 491.403
-87.513 -95.747 491.085
-86.939 -95.736 491.025
-86.318 -95.673 490.703
-85.729 -95.644 490.553
-85.134 -95.608 490.373
-84.527 -95.558 490.116
-83.925 -95.514 489.888
-83.331 -95.478 489.704
-82.758 -95.466 489.640
-82.155 -95.419 489.400
-81.564 -95.384 489.221
-80.975 -95.352 489.056
-80.396 -95.332 488.952
-79.791 -95.279 488.683
-79.205 -95.250 488.535
-78.623 -95.224 488.400
-78.017 -95.168 488.116
-77.444 -95.153 488.038
-76.830 -95.088 487.701
-76.266 -95.083 487.676
-75.670 -95.037 487.439
-75.091 -95.013 487.320
-74.494 -94.965 487.073
-73.923 -94.950 486.995
-73.325 -94.900 486.738
-72.747 -94.875 486.610
-72.160 -94.838 486.422
-71.576 -94.804 486.248
-70.996 -94.775 486.099
-70.401 -94.726 485.845
-69.850 -94.735 485.892
-69.249 -94.675 485.587
-68.665 -94.639 485.401
-68.080 -94.601 485.205
-67.496 -94.563 485.013
-66.905 -94.516 484.768
-66.326 -94.484 484.605
-65.743 -94.446 484.411
-65.154 -94.399 484.167
-64.597 -94.396 484.155
-64.005 -94.343 483.881
-63.448 -94.342 483.875
-62.849 -94.276 483.540
-62.288 -94.267 483.491
-61.693 -94.206 483.182
-61.126 -94.188 483.086
-60.539 -94.137 482.827
-59.964 -94.105 482.660
-59.379 -94.057 482.415
-58.831 -94.066 482.460
-58.247 -94.018 482.213
-57.672 -93.982 482.033
-57.110 -93.969 481.965
-56.522 -93.912 481.672
-55.959 -93.895 481.583
-55.384 -93.858 481.394
-54.809 -93.820 481.199
-54.250 -93.808 481.140
-53.663 -93.748 480.831
-53.085 -93.703 480.598
-52.517 -93.673 480.447
-51.946 -93.639 480.271
-51.388 -93.627 480.210
-50.818 -93.592 480.032
-50.239 -93.541 479.768
-49.684 -93.533 479.729
-49.107 -93.483 479.471
-48.547 -93.465 479.379
-47.971 -93.416 479.126
-47.411 -93.396 479.023
-46.835 -93.345 478.766
-46.279 -93.332 478.696
-45.707 -93.287 478.463
-45.152 -93.276 478.407
-44.570 -93.207 478.056
-44.013 -93.190 477.968
-43.447 -93.151 477.771
-42.880 -93.112 477.567
-42.318 -93.083 477.420
-41.755 -93.050 477.249
-41.190 -93.011 477.051
-40.629 -92.982 476.901
-40.068 -92.950 476.738
-39.514 -92.934 476.654
-38.957 -92.911 476.538
-38.385 -92.851 476.229
-37.832 -92.837 476.158
-37.259 -92.772 475.826
-36.707 -92.756 475.741
-36.146 -92.718 475.550
-35.585 -92.680 475.354
-35.022 -92.634 475.118
-34.464 -92.603 474.955
-33.907 -92.570 474.788
-33.349 -92.533 474.598
-32.786 -92.483 474.344
-32.231 -92.452 474.185
-31.683 -92.443 474.135
-31.126 -92.406 473.948
-30.578 -92.396 473.896
-30.015 -92.337 473.592
-29.468 -92.326 473.535
-28.911 -92.284 473.321
-28.358 -92.254 473.165
-27.803 -92.216 472.972
-27.252 -92.189 472.835
-26.693 -92.132 472.541
-26.146 -92.117 472.466
-25.593 -92.078 472.264
-25.045 -92.060 472.172
-24.495 -92.028 472.010
-23.942 -91.986 471.791
-23.394 -91.961 471.663
-22.843 -91.923 471.470
-22.299 -91.913 471.421
-21.748 -91.872 471.206
-21.196 -91.827 470.976
-20.644 -91.776 470.718
-20.100 -91.759 470.631
-19.548 -91.705 470.350
-19.011 -91.721 470.435
-18.458 -91.655 470.096
-17.916 -91.643 470.034
-17.367 -91.595 469.788
-16.825 -91.580 469.712
-16.274 -91.514 469.375
-15.735 -91.516 469.381
-15.190 -91.482 469.209
-14.651 -91.480 469.199
-14.103 -91.420 468.889
-13.568 -91.442 469.001
-13.022 -91.392 468.746
-12.480 -91.361 468.590
-11.935 -91.310 468.327
-11.393 -91.279 468.167
-10.851 -91.238 467.959
-10.310 -91.208 467.803
-9.768 -91.162 467.567
-9.229 -91.139 467.447
-8.688 -91.095 467.223
-8.148 -91.060 467.044
-7.609 -91.027 466.875
-7.069 -90.972 466.591
-6.532 -90.958 466.523
-5.993 -90.909 466.268
-5.458 -90.907 466.257
-4.923 -90.912 466.283
-4.386 -90.878 466.110
-3.849 -90.840 465.914
-3.312 -90.794 465.681
-2.775 -90.724 465.318
-2.241 -90.734 465.369
-1.706 -90.667 465.029
-1.172 -90.676 465.075
-0.637 -90.626 464.817
-0.104 -90.610 464.735
0.430 -90.571 464.535
0.963 -90.556 464.456
1.496 -90.503 464.186
2.028 -90.493 464.134
2.560 -90.440 463.866
3.092 -90.438 463.854
3.623 -90.381 463.561
4.154 -90.368 463.495
4.684 -90.326 463.279
5.214 -90.289 463.089
5.744 -90.253 462.904
6.273 -90.226 462.768
6.802 -90.193 462.595
7.331 -90.166 462.459
7.859 -90.128 462.262
8.390 -90.134 462.292
8.916 -90.079 462.011
9.442 -90.042 461.824
9.971 -90.025 461.735
10.497 -89.989 461.550
11.022 -89.949 461.347
11.548 -89.924 461.219
12.075 -89.904 461.113
12.600 -89.871 460.944
13.124 -89.833 460.751
13.646 -89.787 460.515
14.171 -89.766 460.405
14.694 -89.727 460.205
15.220 -89.715 460.145
15.740 -89.666 459.895
16.264 -89.644 459.781
16.785 -89.604 459.577
17.308 -89.581 459.457
17.828 -89.543 459.264
18.349 -89.512 459.105
18.867 -89.472 458.897
19.392 -89.461 458.842
19.905 -89.397 458.512
20.432 -89.398 458.521
20.943 -89.333 458.188
21.468 -89.328 458.158
21.982 -89.281 457.918
22.506 -89.272 457.876
23.017 -89.216 457.584
23.537 -89.197 457.489
24.053 -89.160 457.300
24.578 -89.159 457.296
25.087 -89.105 457.015
25.613 -89.109 457.039
26.122 -89.054 456.755
26.643 -89.041 456.690
27.153 -88.995 456.453
27.669 -88.968 456.316
28.181 -88.929 456.116
28.697 -88.906 455.998
29.207 -88.866 455.790
29.727 -88.855 455.736
30.234 -88.808 455.496
30.755 -88.801 455.455
31.264 -88.761 455.251
31.782 -88.748 455.187
32.294 -88.719 455.035
32.803 -88.684 454.857
33.316 -88.658 454.724
33.831 -88.638 454.622
34.334 -88.591 454.380
34.847 -88.568 454.262
35.352 -88.525 454.044
35.867 -88.511 453.970
36.367 -88.460 453.708
36.880 -88.439 453.602
37.386 -88.405 453.426
37.900 -88.389 453.343
38.400 -88.342 453.101
38.909 -88.315 452.966
39.408 -88.269 452.728
39.926 -88.265 452.708
40.421 -88.210 452.425
40.938 -88.205 452.402
41.431 -88.148 452.109
41.945 -88.138 452.058
42.443 -88.095 451.837
42.953 -88.076 451.741
43.450 -88.033 451.517
43.961 -88.018 451.440
44.459 -87.976 451.229
44.975 -87.974 451.214
45.460 -87.908 450.878
45.972 -87.898 450.827
46.467 -87.856 450.609
46.983 -87.852 450.591
47.477 -87.810 450.373
47.979 -87.781 450.225
48.475 -87.743 450.032
48.976 -87.714 449.884
49.474 -87.682 449.718
49.983 -87.669 449.651
50.469 -87.616 449.381
50.979 -87.607 449.332
51.472 -87.567 449.129
51.980 -87.554 449.060
52.471 -87.513 448.853
52.976 -87.495 448.760
53.468 -87.458 448.569
53.969 -87.434 448.448
54.467 -87.407 448.308
54.967 -87.384 448.192
55.448 -87.331 447.916
55.959 -87.326 447.891
56.443 -87.279 447.653
56.948 -87.266 447.583
57.436 -87.227 447.382
57.938 -87.208 447.289
58.426 -87.170 447.091
58.925 -87.149 446.986
59.413 -87.112 446.797
59.913 -87.094 446.700
60.389 -87.040 446.426
60.893 -87.028 446.362
61.369 -86.975 446.093
61.879 -86.972 446.076
62.361 -86.930 445.861
62.866 -86.921 445.814
63.345 -86.876 445.585
63.841 -86.854 445.473
64.331 -86.825 445.321
64.819 -86.793 445.160
65.310 -86.767 445.023
65.801 -86.741 444.893
66.287 -86.708 444.721
66.772 -86.675 444.555
67.261 -86.648 444.415
67.751 -86.622 444.281
68.236 -86.589 444.115
68.722 -86.560 443.962
69.211 -86.534 443.829
69.695 -86.501 443.663
70.182 -86.474 443.523
70.656 -86.431 443.300
71.143 -86.404 443.165
71.635 -86.384 443.061
72.112 -86.345 442.861
72.608 -86.331 442.788
73.096 -86.307 442.664
73.573 -86.270 442.474
74.050 -86.234 442.291
74.534 -86.206 442.148
75.024 -86.186 442.045
75.488 -86.136 441.791
75.988 -86.128 441.747
76.461 -86.089 441.548
76.954 -86.074 441.470
77.426 -86.034 441.267
77.920 -86.021 441.198
78.385 -85.975 440.961
78.884 -85.967 440.920
79.354 -85.928 440.720
79.843 -85.909 440.627
80.292 -85.848 440.314
80.790 -85.840 440.271
81.240 -85.782 439.974
81.742 -85.779 439.956
82.223 -85.753 439.824
82.712 -85.736 439.738
83.175 -85.693 439.516
83.659 -85.673 439.412
84.126 -85.634 439.214
84.610 -85.613 439.107
85.086 -85.585 438.962
85.557 -85.552 438.795
86.025 -85.516 438.611
86.514 -85.502 438.537
86.985 -85.470 438.374
87.460 -85.442 438.228
87.952 -85.432 438.176
88.433 -85.410 438.063
88.889 -85.365 437.833
89.356 -85.330 437.655
89.828 -85.301 437.508
90.296 -85.269 437.344
90.777 -85.249 437.241
91.240 -85.213 437.052
91.719 -85.192 436.946
92.195 -85.168 436.824
92.665 -85.139 436.673
93.134 -85.109 436.521
93.619 -85.094 436.445
94.069 -85.048 436.208
94.558 -85.037 436.153
94.999 -84.984 435.879
95.501 -84.985 435.886
95.935 -84.927 435.586
96.438 -84.929 435.599
96.874 -84.873 435.311
97.366 -84.866 435.274
97.824 -84.829 435.086
98.288 -84.798 434.928
98.747 -84.764 434.753
99.220 -84.742 434.639
99.686 -84.713 434.492
100.154 -84.688 434.361
100.623 -84.662 434.230
101.085 -84.632 434.073
101.554 -84.607 433.948
102.024 -84.584 433.828
102.487 -84.555 433.678
102.939 -84.517 433.485
103.419 -84.503 433.411
103.874 -84.468 433.232
104.352 -84.452 433.153
104.800 -84.413 432.950
105.273 -84.393 432.850
105.726 -84.358 432.669
106.209 -84.347 432.612
106.640 -84.295 432.344
107.125 -84.286 432.298
107.574 -84.248 432.108
108.048 -84.231 432.020
108.501 -84.198 431.847
108.990 -84.193 431.823
109.415 -84.138 431.541
109.894 -84.125 431.476
110.349 -84.094 431.317
110.827 -84.081 431.251
111.260 -84.035 431.013
111.738 -84.022 430.944
112.176 -83.979 430.727
112.636 -83.954 430.596
113.094 -83.927 430.458
113.530 -83.884 430.236
114.038 -83.894 430.287
114.447 -83.832 429.971
114.937 -83.829 429.956
115.368 -83.783 429.723
115.850 -83.775 429.678
116.282 -83.731 429.452
116.764 -83.723 429.412
117.206 -83.686 429.222
117.668 -83.664 429.110
118.131 -83.643 429.004
118.591 -83.620 428.886
119.035 -83.587 428.713
119.512 -83.575 428.656
119.936 -83.528 428.412
120.408 -83.514 428.343
120.839 -83.472 428.125
121.319 -83.464 428.085
121.742 -83.417 427.844
122.221 -83.409 427.800
122.655 -83.370 427.603
123.114 -83.348 427.491
123.564 -83.321 427.351
124.011 -83.292 427.199
124.480 -83.277 427.124
124.910 -83.237 426.919
125.380 -83.223 426.849
