131.818 58.961 341.855
132.289 58.997 342.060
132.736 59.020 342.199
133.191 59.048 342.359
133.661 59.082 342.555
134.127 59.114 342.742
134.568 59.135 342.862
135.026 59.163 343.026
135.469 59.185 343.150
135.999 59.244 343.493
136.418 59.255 343.556
136.906 59.295 343.791
137.363 59.322 343.946
137.832 59.354 344.130
138.286 59.379 344.277
138.764 59.415 344.483
139.216 59.438 344.622
139.705 59.478 344.853
140.191 59.517 345.075
140.647 59.542 345.220
141.113 59.571 345.390
141.523 59.577 345.423
142.050 59.631 345.741
142.501 59.654 345.871
143.019 59.704 346.164
143.436 59.713 346.213
143.923 59.750 346.428
144.373 59.772 346.553
144.874 59.814 346.798
145.316 59.832 346.903
145.804 59.869 347.117
146.291 59.905 347.327
146.746 59.928 347.459
147.216 59.957 347.629
147.635 59.965 347.674
148.140 60.008 347.922
148.609 60.036 348.085
149.163 60.098 348.446
149.629 60.124 348.599
150.113 60.158 348.794
150.547 60.171 348.871
151.048 60.212 349.104
151.511 60.236 349.246
152.010 60.275 349.473
152.494 60.308 349.662
152.974 60.338 349.840
153.473 60.377 350.063
153.954 60.408 350.242
154.422 60.434 350.391
154.883 60.457 350.525
155.390 60.497 350.760
155.830 60.512 350.844
156.378 60.568 351.170
156.789 60.571 351.187
157.326 60.623 351.488
157.772 60.639 351.582
158.271 60.675 351.793
158.770 60.712 352.005
159.266 60.746 352.206
159.737 60.772 352.354
160.219 60.801 352.523
160.699 60.830 352.689
161.183 60.860 352.862
161.709 60.905 353.126
162.169 60.926 353.245
162.709 60.976 353.537
163.147 60.988 353.607
163.665 61.030 353.848
164.113 61.045 353.939
164.636 61.088 354.188
165.125 61.119 354.365
165.626 61.154 354.567
166.141 61.193 354.796
166.605 61.214 354.919
167.129 61.257 355.166
167.573 61.270 355.241
168.090 61.310 355.473
168.583 61.341 355.651
169.122 61.388 355.926
169.557 61.398 355.982
170.101 61.447 356.266
170.546 61.460 356.340
171.083 61.505 356.606
171.570 61.533 356.767
172.100 61.576 357.017
172.584 61.603 357.171
173.091 61.637 357.372
173.601 61.673 357.575
174.049 61.686 357.653
174.590 61.732 357.920
175.064 61.754 358.049
175.643 61.813 358.391
176.089 61.826 358.462
176.621 61.868 358.706
177.097 61.890 358.836
177.584 61.916 358.987
178.088 61.948 359.172
178.606 61.985 359.384
179.141 62.027 359.631
179.645 62.058 359.812
180.167 62.096 360.031
180.646 62.119 360.162
181.179 62.160 360.399
181.640 62.176 360.492
182.217 62.231 360.815
182.684 62.249 360.919
183.259 62.304 361.236
183.718 62.319 361.322
184.247 62.358 361.547
184.751 62.388 361.721
185.280 62.426 361.942
185.828 62.470 362.201
186.293 62.487 362.297
186.797 62.516 362.467
187.251 62.529 362.540
187.876 62.599 362.944
188.312 62.605 362.980
188.878 62.654 363.267
189.419 62.695 363.505
189.957 62.735 363.736
190.462 62.764 363.904
190.981 62.797 364.096
191.503 62.831 364.294
191.996 62.856 364.435
192.534 62.895 364.661
192.919 62.884 364.598
193.434 62.915 364.780
193.937 62.943 364.939
194.831 63.096 365.829
195.279 63.105 365.882
195.776 63.130 366.026
196.215 63.136 366.061
196.729 63.166 366.235
197.229 63.192 366.383
197.755 63.225 366.578
198.316 63.270 366.837
198.816 63.295 366.982
199.425 63.355 367.328
199.854 63.357 367.341
200.454 63.413 367.667
200.932 63.431 367.771
201.486 63.472 368.010
201.977 63.494 368.134
202.568 63.547 368.441
203.113 63.585 368.663
203.613 63.609 368.801
204.169 63.650 369.041
204.666 63.673 369.173
205.261 63.726 369.481
205.722 63.737 369.546
206.343 63.798 369.900
206.767 63.798 369.898
207.389 63.859 370.251
207.888 63.882 370.383
208.431 63.917 370.591
208.965 63.951 370.784
209.488 63.980 370.956
210.058 64.024 371.211
210.550 64.044 371.326
211.186 64.108 371.696
19.906 52.068 299.894
20.262 52.098 300.067
20.611 52.110 300.136
20.964 52.131 300.255
21.315 52.146 300.339
21.682 52.200 300.651
22.034 52.216 300.743
22.388 52.236 300.862
22.742 52.255 300.966
23.100 52.282 301.124
26.312 52.483 302.280
26.673 52.510 302.439
27.032 52.533 302.568
27.393 52.560 302.723
27.745 52.567 302.767
28.109 52.597 302.937
28.465 52.613 303.031
28.836 52.654 303.267
29.194 52.673 303.376
40.167 53.366 307.369
40.551 53.407 307.604
40.924 53.434 307.758
41.296 53.457 307.891
41.666 53.478 308.012
42.045 53.510 308.198
42.410 53.525 308.285
42.789 53.556 308.461
43.162 53.580 308.598
43.540 53.608 308.764
43.908 53.625 308.857
44.278 53.644 308.967
44.658 53.673 309.138
45.036 53.701 309.299
45.425 53.741 309.528
45.791 53.754 309.601
46.161 53.771 309.698
46.533 53.790 309.807
46.921 53.827 310.022
49.946 54.018 311.122
50.320 54.036 311.228
50.699 54.059 311.357
51.078 54.081 311.488
51.457 54.105 311.622
51.834 54.124 311.734
52.228 54.161 311.948
52.609 54.185 312.086
52.992 54.210 312.231
53.368 54.228 312.332
53.763 54.265 312.544
54.139 54.282 312.642
54.533 54.317 312.844
54.894 54.318 312.852
55.299 54.364 313.115
55.674 54.379 313.201
56.068 54.412 313.394
56.446 54.430 313.495
56.836 54.459 313.661
57.222 54.483 313.801
57.607 54.507 313.938
57.997 54.534 314.093
58.384 54.559 314.237
58.773 54.585 314.386
59.161 54.609 314.528
59.547 54.632 314.662
59.930 54.652 314.777
60.322 54.680 314.935
60.716 54.709 315.105
61.098 54.727 315.206
61.491 54.755 315.368
61.877 54.776 315.487
62.271 54.804 315.649
62.665 54.831 315.807
63.060 54.860 315.972
63.435 54.870 316.033
63.823 54.891 316.153
64.225 54.925 316.346
64.614 54.947 316.474
65.025 54.987 316.707
65.425 55.018 316.883
65.834 55.056 317.100
66.202 55.059 317.116
66.609 55.094 317.320
66.987 55.106 317.387
67.389 55.136 317.561
67.770 55.150 317.641
68.176 55.183 317.830
68.561 55.199 317.924
68.969 55.234 318.124
69.378 55.268 318.324
69.787 55.303 318.522
70.174 55.320 318.621
70.575 55.347 318.777
70.962 55.363 318.872
71.354 55.383 318.988
71.748 55.405 319.111
72.145 55.429 319.248
72.534 55.445 319.344
72.975 55.502 319.670
73.386 55.535 319.862
73.798 55.569 320.056
74.198 55.593 320.195
74.585 55.608 320.280
74.978 55.626 320.387
75.378 55.650 320.521
75.798 55.688 320.742
76.196 55.710 320.867
76.615 55.746 321.078
77.009 55.765 321.187
77.415 55.792 321.339
77.806 55.807 321.429
78.226 55.844 321.639
78.621 55.862 321.744
79.041 55.898 321.950
79.436 55.916 322.054
79.844 55.943 322.208
80.247 55.966 322.342
80.664 55.998 322.528
81.048 56.007 322.582
81.481 56.051 322.830
81.903 56.086 323.032
82.336 56.128 323.277
82.726 56.141 323.350
83.124 56.159 323.453
83.525 56.179 323.570
83.929 56.201 323.695
84.361 56.241 323.925
84.751 56.253 323.995
85.163 56.279 324.147
85.572 56.303 324.285
85.996 56.337 324.482
86.403 56.360 324.609
86.807 56.380 324.728
87.201 56.394 324.806
87.619 56.423 324.972
88.014 56.437 325.054
88.467 56.488 325.347
88.723 56.413 324.917
89.234 56.500 325.419
89.486 56.424 324.978
90.003 56.514 325.496
90.273 56.449 325.123
90.672 56.465 325.214
90.956 56.409 324.897
91.440 56.478 325.291
91.740 56.432 325.029
92.100 56.424 324.983
94.091 56.276 324.129
94.511 56.305 324.293
94.785 56.246 323.958
95.276 56.316 324.361
95.490 56.223 323.823
96.845 56.146 323.382
97.347 56.222 323.816
97.578 56.141 323.352
98.015 56.179 323.567
98.335 56.149 323.398
98.635 56.108 323.163
99.050 56.133 323.307
99.358 56.098 323.102
99.800 56.138 323.331
100.067 56.079 322.994
100.450 56.086 323.035
100.758 56.051 322.834
109.811 57.892 333.439
110.246 57.920 333.597
110.691 57.952 333.783
111.119 57.975 333.917
111.542 57.996 334.034
111.990 58.029 334.227
112.419 58.053 334.361
112.876 58.090 334.577
113.290 58.106 334.668
113.768 58.153 334.941
114.189 58.172 335.049
114.632 58.202 335.219
115.056 58.221 335.332
115.515 58.259 335.549
115.948 58.283 335.686
116.404 58.318 335.889
116.859 58.353 336.088
117.309 58.384 336.272
117.737 58.405 336.393
118.187 58.437 336.575
118.641 58.470 336.765
119.060 58.486 336.856
119.515 58.519 337.048
119.926 58.531 337.118
120.411 58.579 337.391
120.825 58.592 337.467
121.306 58.637 337.725
121.721 58.650 337.801
122.189 58.688 338.023
122.633 58.715 338.176
123.109 58.757 338.418
123.544 58.779 338.546
124.003 58.813 338.738
124.446 58.838 338.885
124.912 58.874 339.092
125.363 58.903 339.261
125.814 58.932 339.427
126.275 58.965 339.617
126.696 58.980 339.700
127.175 59.021 339.938
127.589 59.032 340.000
128.067 59.073 340.235
128.548 59.114 340.473
129.018 59.150 340.683
129.432 59.160 340.741
129.911 59.201 340.973
130.326 59.211 341.032
130.807 59.252 341.268
131.258 59.278 341.420
131.711 59.306 341.580
132.189 59.344 341.800
132.630 59.366 341.925
133.089 59.396 342.096
133.546 59.424 342.260
134.015 59.458 342.455
134.461 59.481 342.590
134.937 59.518 342.800
135.379 59.539 342.922
135.898 59.594 343.238
136.309 59.601 343.280
136.812 59.649 343.555
137.254 59.669 343.672
137.723 59.702 343.859
138.168 59.723 343.984
138.621 59.748 344.126
139.087 59.779 344.304
139.567 59.815 344.512
140.056 59.855 344.742
140.519 59.883 344.905
140.997 59.918 345.108
141.426 59.932 345.186
141.923 59.975 345.433
142.378 59.999 345.574
142.895 60.050 345.864
143.330 60.066 345.955
143.822 60.105 346.183
144.266 60.125 346.296
144.762 60.165 346.530
145.194 60.180 346.612
145.684 60.218 346.832
146.152 60.247 346.998
146.621 60.275 347.163
147.088 60.304 347.326
147.517 60.316 347.395
148.009 60.354 347.616
148.449 60.371 347.711
149.044 60.450 348.169
149.529 60.484 348.367
149.991 60.509 348.510
150.428 60.524 348.595
150.919 60.560 348.805
151.371 60.581 348.923
151.878 60.624 349.168
152.350 60.652 349.332
152.829 60.683 349.509
153.338 60.726 349.756
153.806 60.752 349.905
154.287 60.783 350.086
154.747 60.806 350.218
155.240 60.841 350.422
155.708 60.867 350.571
156.238 60.917 350.857
156.680 60.932 350.944
157.216 60.983 351.241
157.645 60.993 351.299
158.136 61.027 351.493
158.628 61.061 351.688
159.133 61.100 351.912
159.613 61.129 352.079
160.086 61.155 352.231
160.593 61.194 352.456
161.056 61.216 352.583
161.575 61.260 352.833
162.044 61.284 352.973
162.584 61.335 353.265
163.017 61.345 353.324
163.538 61.388 353.573
164.008 61.412 353.712
164.509 61.448 353.916
164.982 61.472 354.058
165.491 61.511 354.278
165.985 61.543 354.465
166.470 61.572 354.631
166.995 61.615 354.881
167.423 61.623 354.925
167.963 61.671 355.204
168.410 61.686 355.287
168.970 61.741 355.606
169.418 61.756 355.691
169.937 61.796 355.922
170.408 61.819 356.052
170.946 61.865 356.321
171.404 61.883 356.424
171.939 61.928 356.683
172.431 61.958 356.855
172.938 61.993 357.055
173.434 62.023 357.231
173.932 62.055 357.412
174.447 62.092 357.626
174.920 62.114 357.754
175.502 62.175 358.105
175.931 62.181 358.139
176.479 62.229 358.418
176.939 62.246 358.516
177.458 62.284 358.732
177.948 62.312 358.890
178.459 62.346 359.090
179.000 62.391 359.348
179.489 62.418 359.501
180.009 62.455 359.715
180.482 62.475 359.833
181.013 62.516 360.069
181.509 62.545 360.232
182.074 62.596 360.531
182.548 62.617 360.650
183.120 62.671 360.961
183.555 62.678 361.001
184.082 62.716 361.222
184.616 62.757 361.457
185.128 62.790 361.646
185.642 62.823 361.838
186.132 62.849 361.984
186.650 62.883 362.183
187.088 62.890 362.225
187.720 62.963 362.642
188.147 62.966 362.663
188.730 63.022 362.983
189.251 63.057 363.182
189.791 63.098 363.419
190.293 63.126 363.580
190.810 63.159 363.771
191.349 63.199 364.001
191.837 63.222 364.134
192.383 63.264 364.376
192.807 63.266 364.386
193.271 63.281 364.472
193.792 63.314 364.665
194.618 63.447 365.429
195.091 63.464 365.530
195.610 63.496 365.715
196.074 63.511 365.798
196.563 63.533 365.926
197.069 63.561 366.086
197.576 63.588 366.245
198.148 63.637 366.527
198.682 63.673 366.734
199.300 63.736 367.097
199.701 63.730 367.059
200.231 63.764 367.259
200.720 63.786 367.383
201.304 63.837 367.678
201.817 63.866 367.843
202.385 63.912 368.108
202.902 63.942 368.280
203.448 63.980 368.502
204.006 64.023 368.746
204.489 64.042 368.855
205.071 64.091 369.140
205.545 64.107 369.229
206.167 64.168 369.583
206.607 64.173 369.613
207.225 64.233 369.958
207.698 64.248 370.044
208.249 64.287 370.267
208.778 64.319 370.452
209.323 64.356 370.663
209.883 64.397 370.902
210.387 64.421 371.040
210.991 64.475 371.352
19.893 52.379 299.701
20.248 52.406 299.858
20.595 52.414 299.901
20.948 52.435 300.023
21.301 52.456 300.140
21.668 52.511 300.459
22.019 52.526 300.540
22.376 52.553 300.694
22.726 52.563 300.753
23.086 52.596 300.943
34.250 53.299 304.967
34.622 53.333 305.161
34.991 53.361 305.320
40.895 53.749 307.539
41.265 53.770 307.663
41.639 53.797 307.816
42.012 53.822 307.956
42.380 53.840 308.060
42.757 53.870 308.233
43.129 53.893 308.363
43.504 53.918 308.507
43.871 53.934 308.596
44.236 53.947 308.675
44.620 53.982 308.875
45.002 54.016 309.067
45.394 54.060 309.317
45.759 54.072 309.387
46.130 54.089 309.487
46.504 54.111 309.610
46.887 54.143 309.796
47.256 54.158 309.881
47.637 54.187 310.049
48.012 54.209 310.170
48.386 54.228 310.282
48.764 54.252 310.418
49.149 54.284 310.603
49.526 54.306 310.726
49.912 54.338 310.910
50.289 54.359 311.032
50.660 54.375 311.120
51.037 54.396 311.243
51.421 54.424 311.399
51.793 54.439 311.489
52.179 54.469 311.659
52.567 54.500 311.836
52.950 54.525 311.981
53.329 54.547 312.106
53.722 54.582 312.305
54.097 54.598 312.400
54.494 54.637 312.621
54.862 54.646 312.671
55.256 54.680 312.869
55.634 54.699 312.976
56.031 54.736 313.186
56.408 54.753 313.283
56.800 54.784 313.459
57.172 54.795 313.524
57.571 54.832 313.739
57.950 54.850 313.842
58.343 54.881 314.018
58.731 54.906 314.161
59.123 54.935 314.327
59.506 54.956 314.444
59.893 54.980 314.583
60.282 55.005 314.725
60.675 55.034 314.891
61.065 55.059 315.036
61.450 55.080 315.155
61.831 55.097 315.253
62.227 55.127 315.426
62.628 55.162 315.622
63.020 55.187 315.770
63.392 55.195 315.816
63.787 55.223 315.975
64.187 55.255 316.158
64.573 55.276 316.274
64.974 55.308 316.459
65.373 55.337 316.628
65.781 55.375 316.843
66.155 55.384 316.894
66.564 55.421 317.108
66.941 55.431 317.166
67.343 55.463 317.346
67.721 55.474 317.410
68.129 55.510 317.613
68.503 55.517 317.658
68.919 55.558 317.891
69.320 55.588 318.059
69.736 55.628 318.290
70.132 55.652 318.429
70.525 55.674 318.552
70.909 55.688 318.635
71.297 55.705 318.730
71.697 55.732 318.883
72.092 55.754 319.012
72.475 55.766 319.083
72.905 55.816 319.365
73.328 55.858 319.608
73.734 55.888 319.780
74.157 55.930 320.017
74.543 55.944 320.098
74.927 55.956 320.169
75.328 55.981 320.311
75.737 56.011 320.485
76.136 56.034 320.615
76.554 56.071 320.823
76.953 56.093 320.954
77.356 56.118 321.096
77.742 56.131 321.167
78.163 56.168 321.380
78.556 56.185 321.478
78.978 56.223 321.696
79.382 56.247 321.835
79.787 56.272 321.976
80.194 56.298 322.126
80.607 56.329 322.300
80.996 56.342 322.373
81.417 56.377 322.576
81.852 56.421 322.831
82.274 56.457 323.031
82.660 56.467 323.094
83.069 56.493 323.238
83.442 56.494 323.248
83.876 56.536 323.487
84.294 56.568 323.669
84.692 56.585 323.768
85.104 56.612 323.920
85.511 56.635 324.055
85.942 56.674 324.276
86.353 56.700 324.423
86.765 56.725 324.568
87.169 56.746 324.687
87.585 56.774 324.847
87.996 56.798 324.986
88.404 56.820 325.113
88.802 56.836 325.203
89.215 56.862 325.350
89.631 56.889 325.505
90.044 56.913 325.645
90.464 56.942 325.811
90.818 56.930 325.739
91.151 56.904 325.593
91.486 56.880 325.455
91.901 56.905 325.600
92.378 56.969 325.964
92.701 56.937 325.784
93.036 56.914 325.648
93.502 56.970 325.970
93.766 56.903 325.585
94.193 56.935 325.769
94.451 56.865 325.371
94.855 56.883 325.474
95.125 56.821 325.119
95.547 56.850 325.285
95.752 56.750 324.713
97.153 56.698 324.412
97.504 56.685 324.341
97.723 56.596 323.832
98.203 56.659 324.188
98.445 56.584 323.761
98.926 56.646 324.117
99.192 56.586 323.772
99.613 56.614 323.930
99.901 56.566 323.658
100.218 56.535 323.483
100.616 56.550 323.568
109.713 58.223 333.140
110.154 58.254 333.318
110.598 58.286 333.501
111.037 58.316 333.670
111.463 58.338 333.799
111.898 58.365 333.953
112.323 58.387 334.075
112.786 58.428 334.311
113.197 58.442 334.392
113.674 58.490 334.666
114.095 58.508 334.772
114.549 58.544 334.977
114.970 58.563 335.084
115.429 58.600 335.297
115.853 58.620 335.412
116.294 58.648 335.572
116.761 58.689 335.807
117.211 58.722 335.992
117.654 58.750 336.155
118.098 58.779 336.321
118.533 58.803 336.459
118.968 58.827 336.597
119.412 58.856 336.758
119.832 58.872 336.852
120.319 58.921 337.133
120.723 58.929 337.181
121.201 58.974 337.435
121.628 58.993 337.543
122.090 59.029 337.749
122.531 59.054 337.895
123.029 59.107 338.198
123.443 59.119 338.268
123.892 59.149 338.435
124.339 59.176 338.592
124.799 59.210 338.787
125.258 59.243 338.975
125.727 59.281 339.191
126.176 59.308 339.350
126.606 59.327 339.458
127.082 59.368 339.688
127.490 59.376 339.738
127.978 59.422 339.997
128.428 59.449 340.155
128.908 59.490 340.391
129.331 59.505 340.475
129.799 59.541 340.677
130.227 59.557 340.774
130.704 59.596 340.997
131.143 59.618 341.121
131.611 59.653 341.319
132.063 59.680 341.475
132.523 59.710 341.649
132.999 59.748 341.866
133.442 59.770 341.993
133.923 59.810 342.219
134.364 59.832 342.343
134.838 59.868 342.549
135.288 59.892 342.690
135.787 59.939 342.958
136.213 59.953 343.038
136.716 60.001 343.314
137.146 60.017 343.402
137.623 60.053 343.610
138.058 60.070 343.709
138.515 60.098 343.865
138.988 60.131 344.057
139.451 60.161 344.227
139.924 60.194 344.417
140.384 60.222 344.576
140.872 60.261 344.802
141.320 60.283 344.928
141.813 60.325 345.164
142.261 60.347 345.290
142.794 60.404 345.620
143.215 60.415 345.679
143.718 60.459 345.934
144.167 60.481 346.059
144.635 60.511 346.228
145.093 60.536 346.372
145.561 60.565 346.539
146.028 60.594 346.703
146.511 60.629 346.904
146.985 60.660 347.082
147.415 60.673 347.156
147.896 60.707 347.350
148.324 60.718 347.417
148.908 60.794 347.850
149.409 60.835 348.086
149.872 60.861 348.235
150.321 60.881 348.349
150.805 60.915 348.541
151.256 60.935 348.659
151.753 60.974 348.881
152.211 60.997 349.013
152.708 61.036 349.232
153.204 61.073 349.449
153.670 61.099 349.597
154.171 61.139 349.823
154.604 61.151 349.895
155.115 61.194 350.141
155.569 61.215 350.258
156.101 61.266 350.548
156.561 61.288 350.677
157.074 61.331 350.925
157.523 61.349 351.027
158.033 61.391 351.263
158.482 61.409 351.366
159.000 61.453 351.619
159.481 61.483 351.790
159.954 61.509 351.940
160.460 61.548 352.164
160.916 61.568 352.278
161.433 61.611 352.524
161.889 61.630 352.636
162.442 61.686 352.956
162.894 61.704 353.057
163.406 61.744 353.287
163.868 61.766 353.410
164.379 61.805 353.635
164.849 61.829 353.774
165.338 61.860 353.951
165.828 61.891 354.129
166.329 61.926 354.329
166.848 61.968 354.569
167.302 61.986 354.668
167.837 62.033 354.937
168.241 62.031 354.930
168.828 62.097 355.308
169.283 62.115 355.407
169.795 62.153 355.624
170.271 62.178 355.766
170.807 62.224 356.032
171.269 62.243 356.142
171.774 62.278 356.341
172.283 62.314 356.548
172.789 62.349 356.747
173.289 62.382 356.934
173.776 62.409 357.093
174.293 62.448 357.311
174.785 62.477 357.479
175.341 62.529 357.774
175.778 62.538 357.828
176.339 62.591 358.134
176.769 62.598 358.171
177.309 62.643 358.431
177.793 62.669 358.578
178.301 62.703 358.771
178.842 62.748 359.031
179.326 62.773 359.175
179.864 62.817 359.425
180.317 62.831 359.505
180.851 62.873 359.746
181.323 62.894 359.864
181.903 62.951 360.193
182.394 62.978 360.347
182.925 63.019 360.578
183.396 63.038 360.689
183.911 63.072 360.887
184.427 63.107 361.086
184.967 63.150 361.331
185.465 63.179 361.494
185.950 63.202 361.629
186.484 63.243 361.860
186.952 63.260 361.961
187.508 63.308 362.233
188.003 63.334 362.385
188.584 63.390 362.702
189.054 63.408 362.805
189.596 63.450 363.044
190.105 63.480 363.220
190.639 63.519 363.444
191.165 63.556 363.651
191.662 63.582 363.801
192.212 63.626 364.052
192.643 63.630 364.076
193.208 63.678 364.353
193.572 63.660 364.250
194.344 63.776 364.914
194.904 63.823 365.179
195.420 63.854 365.360
195.889 63.870 365.452
196.380 63.894 365.584
196.906 63.928 365.782
197.405 63.954 365.928
197.957 63.996 366.173
198.468 64.026 366.340
199.107 64.096 366.742
199.572 64.110 366.822
200.078 64.137 366.977
200.542 64.151 367.055
201.147 64.209 367.392
201.646 64.234 367.532
202.175 64.268 367.726
202.700 64.300 367.912
203.247 64.340 368.139
203.832 64.391 368.433
204.317 64.411 368.544
204.890 64.458 368.814
205.344 64.467 368.868
205.955 64.526 369.204
206.436 64.544 369.306
207.016 64.593 369.585
207.526 64.619 369.737
208.074 64.658 369.957
208.604 64.690 370.143
209.153 64.729 370.363
209.720 64.772 370.613
210.235 64.800 370.772
210.787 64.839 370.993
19.876 52.679 299.448
20.229 52.702 299.583
20.579 52.717 299.665
20.931 52.737 299.778
21.286 52.764 299.931
21.652 52.815 300.226
22.002 52.830 300.307
22.357 52.854 300.443
22.709 52.868 300.526
23.068 52.902 300.717
32.052 53.488 304.049
32.420 53.519 304.224
32.776 53.530 304.285
33.142 53.556 304.437
33.500 53.569 304.512
33.861 53.588 304.616
34.223 53.608 304.731
34.590 53.633 304.873
34.962 53.667 305.068
35.341 53.711 305.317
35.698 53.721 305.371
36.073 53.757 305.577
36.432 53.768 305.643
36.802 53.797 305.807
40.866 54.063 307.316
41.238 54.088 307.458
41.611 54.114 307.610
41.979 54.134 307.719
42.349 54.155 307.841
42.723 54.180 307.982
43.101 54.211 308.160
43.472 54.232 308.279
43.835 54.243 308.342
44.197 54.254 308.401
44.576 54.283 308.570
44.965 54.326 308.813
45.360 54.374 309.085
45.731 54.394 309.196
46.099 54.409 309.283
46.472 54.430 309.401
46.847 54.452 309.529
47.224 54.478 309.674
47.603 54.504 309.824
47.979 54.527 309.955
48.354 54.549 310.080
48.726 54.566 310.178
49.112 54.599 310.365
49.485 54.618 310.471
49.873 54.652 310.666
50.250 54.675 310.795
50.629 54.698 310.929
50.995 54.709 310.987
51.390 54.748 311.212
51.760 54.762 311.292
52.144 54.789 311.446
52.531 54.820 311.621
52.910 54.842 311.746
53.292 54.867 311.889
53.677 54.895 312.046
54.057 54.917 312.170
54.447 54.948 312.349
54.826 54.969 312.468
55.212 54.995 312.618
55.592 55.017 312.741
55.993 55.058 312.973
56.365 55.070 313.044
56.760 55.104 313.237
57.129 55.114 313.293
57.526 55.150 313.496
57.902 55.165 313.581
58.298 55.199 313.774
58.684 55.223 313.910
59.076 55.252 314.079
59.458 55.272 314.190
59.849 55.300 314.350
60.238 55.326 314.495
60.626 55.350 314.636
61.017 55.377 314.789
61.405 55.402 314.928
61.786 55.419 315.026
62.180 55.448 315.188
62.584 55.485 315.402
62.973 55.508 315.533
63.353 55.524 315.623
63.739 55.545 315.740
64.136 55.575 315.910
64.531 55.602 316.068
64.923 55.628 316.211
65.322 55.658 316.381
65.725 55.691 316.574
66.107 55.707 316.664
66.512 55.742 316.860
66.896 55.758 316.954
67.299 55.791 317.140
67.677 55.802 317.202
68.083 55.837 317.399
68.454 55.842 317.428
68.857 55.873 317.609
69.256 55.901 317.766
69.686 55.953 318.063
70.079 55.975 318.187
70.473 55.998 318.317
70.860 56.015 318.412
71.253 56.037 318.536
71.648 56.060 318.667
72.038 56.078 318.772
72.420 56.091 318.843
72.821 56.118 318.996
73.238 56.156 319.217
73.670 56.206 319.499
74.106 56.259 319.797
74.494 56.275 319.889
74.883 56.291 319.981
75.280 56.313 320.106
75.676 56.334 320.227
76.070 56.354 320.338
76.477 56.383 320.502
76.887 56.413 320.677
77.298 56.444 320.852
77.684 56.458 320.929
78.101 56.492 321.124
78.495 56.510 321.229
78.922 56.552 321.465
79.315 56.569 321.565
79.730 56.602 321.749
80.136 56.627 321.894
80.545 56.655 322.051
80.941 56.673 322.156
81.356 56.705 322.334
81.783 56.745 322.561
82.214 56.786 322.795
82.611 56.804 322.898
82.981 56.804 322.899
83.372 56.818 322.977
83.812 56.865 323.242
84.229 56.895 323.416
84.628 56.914 323.525
85.037 56.939 323.667
85.438 56.959 323.778
85.875 57.002 324.023
86.290 57.030 324.183
86.708 57.061 324.358
87.113 57.082 324.478
87.548 57.123 324.709
87.946 57.139 324.802
88.369 57.171 324.987
88.755 57.179 325.032
89.203 57.228 325.307
89.607 57.247 325.416
90.015 57.269 325.539
90.444 57.304 325.740
90.815 57.302 325.729
91.160 57.284 325.626
91.508 57.267 325.531
91.955 57.313 325.791
92.408 57.362 326.072
92.726 57.327 325.870
93.076 57.312 325.787
93.520 57.355 326.031
93.804 57.300 325.718
94.229 57.331 325.894
94.496 57.266 325.523
94.941 57.309 325.769
95.189 57.233 325.338
95.638 57.278 325.594
95.844 57.178 325.025
96.349 57.257 325.472
96.552 57.155 324.895
97.073 57.243 325.392
97.271 57.139 324.805
97.771 57.214 325.229
97.992 57.125 324.723
98.462 57.181 325.044
98.718 57.113 324.656
99.050 57.090 324.524
99.467 57.116 324.670
99.763 57.072 324.419
100.153 57.082 324.476
100.447 57.037 324.223
107.902 58.454 332.275
108.314 58.470 332.368
108.766 58.508 332.583
109.190 58.530 332.711
109.620 58.556 332.858
110.071 58.593 333.066
110.510 58.623 333.237
110.956 58.656 333.428
111.389 58.683 333.578
111.813 58.704 333.698
112.246 58.730 333.846
112.695 58.765 334.043
113.104 58.778 334.117
113.570 58.821 334.361
113.986 58.837 334.455
114.478 58.892 334.769
114.898 58.911 334.873
115.344 58.942 335.051
115.750 58.953 335.114
116.198 58.985 335.295
116.653 59.020 335.497
117.090 59.047 335.646
117.553 59.086 335.867
118.001 59.117 336.044
118.439 59.142 336.191
118.883 59.171 336.356
119.311 59.192 336.474
119.734 59.210 336.578
120.214 59.256 336.839
120.622 59.267 336.899
121.102 59.313 337.158
121.530 59.332 337.271
121.993 59.369 337.482
122.418 59.388 337.585
122.914 59.440 337.882
123.345 59.461 337.999
123.792 59.489 338.162
124.236 59.516 338.313
124.691 59.547 338.493
125.150 59.581 338.684
125.619 59.619 338.900
126.073 59.650 339.075
126.517 59.675 339.220
126.971 59.706 339.392
127.396 59.722 339.487
127.882 59.767 339.743
128.305 59.783 339.830
128.808 59.835 340.127
129.231 59.850 340.212
129.685 59.879 340.378
130.124 59.902 340.506
130.586 59.934 340.691
131.031 59.959 340.831
131.499 59.994 341.030
131.932 60.012 341.135
132.405 60.049 341.345
132.883 60.088 341.568
133.324 60.110 341.691
133.795 60.146 341.894
134.242 60.170 342.032
134.731 60.213 342.275
135.145 60.222 342.329
135.671 60.281 342.664
136.090 60.292 342.728
136.592 60.340 343.001
137.029 60.359 343.108
137.506 60.396 343.317
137.950 60.418 343.441
138.428 60.454 343.647
138.887 60.483 343.809
139.338 60.507 343.947
139.807 60.539 344.128
140.255 60.562 344.260
140.744 60.602 344.488
141.192 60.625 344.616
141.690 60.668 344.865
142.150 60.696 345.021
142.674 60.750 345.330
143.081 60.754 345.354
143.591 60.803 345.628
144.027 60.819 345.722
144.507 60.854 345.921
144.978 60.885 346.097
145.441 60.913 346.253
145.916 60.945 346.436
146.392 60.977 346.622
146.860 61.007 346.787
147.309 61.027 346.906
147.790 61.062 347.100
148.211 61.071 347.152
148.754 61.130 347.491
149.252 61.171 347.722
149.743 61.208 347.933
150.182 61.224 348.025
150.695 61.271 348.288
151.155 61.295 348.427
151.612 61.318 348.558
152.091 61.349 348.737
152.589 61.389 348.962
153.058 61.416 349.116
153.546 61.451 349.314
154.038 61.487 349.521
154.474 61.501 349.599
154.998 61.550 349.877
155.423 61.559 349.928
155.966 61.615 350.246
156.432 61.640 350.388
156.916 61.672 350.572
157.398 61.703 350.748
157.916 61.748 351.004
158.359 61.764 351.092
158.867 61.805 351.326
159.335 61.830 351.468
159.827 61.864 351.662
160.329 61.902 351.877
160.775 61.918 351.969
161.312 61.969 352.258
161.755 61.984 352.344
162.290 62.034 352.625
162.762 62.059 352.772
163.294 62.108 353.047
163.746 62.125 353.147
164.237 62.158 353.331
164.717 62.186 353.490
165.176 62.206 353.603
165.678 62.242 353.809
166.185 62.279 354.023
166.679 62.312 354.209
167.160 62.340 354.366
167.676 62.381 354.598
168.113 62.391 354.659
168.687 62.453 355.012
169.129 62.466 355.083
169.671 62.515 355.364
170.113 62.528 355.435
170.667 62.581 355.740
171.137 62.604 355.868
171.629 62.634 356.041
172.120 62.664 356.211
172.636 62.703 356.431
173.149 62.741 356.644
173.623 62.764 356.778
174.133 62.800 356.983
174.635 62.833 357.172
175.186 62.884 357.460
175.646 62.902 357.561
176.198 62.952 357.847
176.614 62.954 357.856
177.181 63.010 358.174
177.651 63.030 358.291
178.149 63.061 358.466
178.693 63.108 358.731
179.191 63.138 358.904
179.722 63.180 359.141
180.194 63.201 359.260
180.728 63.243 359.502
181.146 63.245 359.512
181.738 63.307 359.867
182.249 63.341 360.059
182.755 63.374 360.243
183.255 63.403 360.412
183.754 63.433 360.579
184.273 63.469 360.784
184.785 63.503 360.976
185.317 63.543 361.204
185.809 63.569 361.355
186.330 63.605 361.560
186.781 63.618 361.630
187.331 63.663 361.890
187.844 63.696 362.078
188.427 63.753 362.399
188.887 63.768 362.485
189.443 63.815 362.752
189.935 63.840 362.896
190.472 63.881 363.125
191.001 63.918 363.339
191.517 63.951 363.526
192.071 63.997 363.785
192.527 64.009 363.857
193.058 64.047 364.071
193.556 64.073 364.220
194.163 64.136 364.575
194.660 64.162 364.722
195.205 64.203 364.958
195.722 64.235 365.142
196.245 64.269 365.334
196.747 64.296 365.487
197.242 64.321 365.627
197.793 64.363 365.869
198.267 64.381 365.968
198.914 64.454 366.386
199.404 64.477 366.514
199.931 64.511 366.709
200.384 64.521 366.767
200.995 64.582 367.114
201.476 64.601 367.223
201.980 64.628 367.373
202.523 64.666 367.592
203.043 64.698 367.769
203.645 64.755 368.094
204.153 64.782 368.248
204.703 64.822 368.477
205.147 64.829 368.515
205.743 64.883 368.825
206.257 64.912 368.986
206.826 64.957 369.246
207.366 64.994 369.451
207.932 65.038 369.704
208.447 65.066 369.865
208.968 65.096 370.035
209.539 65.142 370.294
210.064 65.173 370.470
210.620 65.213 370.698
20.218 53.017 299.417
20.565 53.024 299.456
20.916 53.044 299.568
21.270 53.068 299.704
21.632 53.112 299.955
21.987 53.137 300.095
22.340 53.158 300.211
22.693 53.177 300.318
23.050 53.204 300.474
23.399 53.214 300.532
23.754 53.236 300.657
24.114 53.269 300.837
24.475 53.302 301.029
24.823 53.307 301.055
25.189 53.350 301.298
32.027 53.795 303.809
32.394 53.825 303.979
32.752 53.841 304.068
33.120 53.870 304.233
33.480 53.887 304.330
33.836 53.898 304.390
34.197 53.916 304.491
34.565 53.945 304.657
34.932 53.972 304.808
35.311 54.016 305.060
35.675 54.037 305.178
36.045 54.066 305.343
36.406 54.081 305.425
36.774 54.107 305.575
40.831 54.370 307.058
41.210 54.404 307.250
41.578 54.424 307.363
41.948 54.447 307.493
42.321 54.472 307.636
42.692 54.495 307.761
43.070 54.526 307.937
43.440 54.546 308.051
43.804 54.559 308.124
44.163 54.565 308.162
44.538 54.591 308.308
44.933 54.641 308.589
45.318 54.678 308.800
45.699 54.710 308.978
46.066 54.724 309.060
46.441 54.748 309.193
46.811 54.765 309.291
47.194 54.798 309.476
47.570 54.821 309.608
47.942 54.841 309.719
48.319 54.865 309.856
48.692 54.885 309.965
49.071 54.910 310.110
49.447 54.932 310.231
49.839 54.971 310.454
50.209 54.987 310.543
50.591 55.014 310.694
50.958 55.025 310.759
51.351 55.064 310.975
51.724 55.081 311.072
52.110 55.111 311.244
52.483 55.128 311.341
52.876 55.165 311.547
53.250 55.182 311.644
53.635 55.209 311.799
54.008 55.225 311.888
54.406 55.266 312.118
54.784 55.285 312.225
55.168 55.311 312.374
55.550 55.334 312.504
55.952 55.376 312.741
56.328 55.394 312.840
56.717 55.422 313.002
57.093 55.438 313.091
57.484 55.469 313.267
57.861 55.485 313.358
58.256 55.519 313.547
58.640 55.542 313.674
59.033 55.573 313.849
59.413 55.591 313.953
59.805 55.621 314.121
60.194 55.647 314.268
60.583 55.672 314.413
60.973 55.699 314.562
61.356 55.719 314.676
61.741 55.740 314.796
62.137 55.771 314.972
62.540 55.808 315.178
62.924 55.827 315.288
63.316 55.854 315.438
63.692 55.866 315.506
64.087 55.895 315.669
64.476 55.917 315.798
64.871 55.945 315.956
65.265 55.973 316.109
65.670 56.008 316.311
66.060 56.031 316.437
66.460 56.062 316.612
66.846 56.081 316.719
67.247 56.112 316.895
67.627 56.125 316.971
68.032 56.159 317.162
68.409 56.169 317.220
68.811 56.200 317.396
69.204 56.223 317.525
69.630 56.273 317.804
70.010 56.285 317.875
70.414 56.317 318.052
70.806 56.337 318.169
71.209 56.368 318.341
71.598 56.386 318.444
71.987 56.404 318.547
72.364 56.413 318.598
72.753 56.431 318.700
73.167 56.468 318.909
73.596 56.516 319.177
74.029 56.567 319.468
74.441 56.602 319.661
74.837 56.624 319.786
75.233 56.645 319.905
75.618 56.658 319.980
76.009 56.676 320.082
76.397 56.691 320.167
76.820 56.732 320.396
77.240 56.770 320.612
77.626 56.783 320.687
78.041 56.817 320.880
78.442 56.841 321.012
78.874 56.887 321.272
79.260 56.899 321.338
79.675 56.932 321.526
80.068 56.949 321.623
80.489 56.985 321.827
80.890 57.008 321.954
81.297 57.034 322.103
81.709 57.063 322.269
82.137 57.103 322.494
82.534 57.122 322.597
82.913 57.128 322.633
83.318 57.152 322.767
83.748 57.192 322.997
84.166 57.224 323.176
84.569 57.246 323.299
84.977 57.270 323.439
85.380 57.291 323.557
85.809 57.330 323.773
86.223 57.358 323.933
86.642 57.389 324.110
87.047 57.411 324.233
87.492 57.459 324.501
87.888 57.474 324.589
88.319 57.512 324.803
88.702 57.518 324.839
89.140 57.560 325.076
89.563 57.592 325.256
89.973 57.615 325.387
90.382 57.638 325.516
90.826 57.683 325.768
91.194 57.679 325.744
91.581 57.687 325.791
91.967 57.694 325.833
92.342 57.695 325.838
92.769 57.728 326.024
93.184 57.753 326.166
93.583 57.768 326.249
93.970 57.776 326.294
94.346 57.777 326.297
94.763 57.803 326.445
95.192 57.835 326.629
95.436 57.756 326.182
95.903 57.812 326.497
96.121 57.718 325.965
96.653 57.812 326.496
96.867 57.716 325.957
97.366 57.790 326.374
97.585 57.698 325.854
97.925 57.678 325.741
98.312 57.685 325.782
98.622 57.648 325.572
98.922 57.605 325.329
99.328 57.624 325.434
99.597 57.564 325.094
100.004 57.583 325.203
100.302 57.539 324.957
105.264 58.641 331.178
105.653 58.646 331.206
106.080 58.672 331.352
106.497 58.692 331.465
106.950 58.731 331.688
107.360 58.747 331.779
107.807 58.783 331.983
108.227 58.804 332.102
108.679 58.843 332.319
109.095 58.861 332.422
109.533 58.892 332.594
109.974 58.923 332.771
110.426 58.961 332.985
110.875 58.996 333.185
111.301 59.019 333.315
111.728 59.042 333.445
112.158 59.067 333.585
112.609 59.103 333.787
113.021 59.118 333.871
113.462 59.148 334.042
113.873 59.162 334.122
114.387 59.230 334.503
114.830 59.260 334.674
115.261 59.284 334.809
115.661 59.292 334.856
116.105 59.322 335.028
116.545 59.351 335.186
117.001 59.387 335.391
117.461 59.424 335.603
117.913 59.458 335.794
118.365 59.492 335.983
118.787 59.509 336.084
119.220 59.533 336.217
119.643 59.552 336.322
120.104 59.589 336.531
120.528 59.607 336.636
121.027 59.663 336.950
121.454 59.683 337.061
121.909 59.716 337.249
122.331 59.733 337.345
122.796 59.770 337.557
123.235 59.796 337.700
123.697 59.831 337.901
124.146 59.861 338.068
124.595 59.890 338.233
125.057 59.925 338.431
125.512 59.957 338.610
125.980 59.995 338.824
126.422 60.020 338.965
126.877 60.051 339.141
127.302 60.068 339.237
127.775 60.107 339.459
128.190 60.119 339.526
128.689 60.170 339.813
129.119 60.189 339.919
129.595 60.228 340.144
130.036 60.252 340.274
130.491 60.281 340.442
130.943 60.310 340.602
131.392 60.336 340.752
131.842 60.363 340.902
132.297 60.392 341.068
132.760 60.424 341.250
133.215 60.453 341.411
133.692 60.492 341.630
134.137 60.515 341.764
134.630 60.560 342.019
135.054 60.575 342.099
135.544 60.618 342.344
135.986 60.640 342.466
136.473 60.682 342.703
136.921 60.706 342.839
137.404 60.745 343.063
137.849 60.768 343.190
138.330 60.806 343.406
138.785 60.833 343.556
139.244 60.861 343.715
139.713 60.893 343.898
140.166 60.918 344.039
140.649 60.956 344.255
141.085 60.974 344.355
141.564 61.010 344.559
142.015 61.034 344.692
142.545 61.091 345.018
142.957 61.098 345.056
143.452 61.140 345.292
143.881 61.154 345.370
144.392 61.203 345.645
144.856 61.231 345.806
145.325 61.261 345.977
145.798 61.293 346.157
146.263 61.321 346.316
146.744 61.356 346.513
147.191 61.377 346.629
147.674 61.412 346.828
148.116 61.430 346.930
148.614 61.472 347.164
149.104 61.509 347.377
149.608 61.552 347.622
150.027 61.560 347.666
150.575 61.621 348.009
151.076 61.663 348.243
151.498 61.672 348.296
151.981 61.705 348.485
152.458 61.737 348.662
152.945 61.771 348.858
153.438 61.809 349.068
153.907 61.836 349.223
154.365 61.859 349.353
154.867 61.899 349.580
155.292 61.909 349.634
155.846 61.969 349.975
156.294 61.988 350.079
156.795 62.027 350.301
157.274 62.057 350.471
157.769 62.094 350.678
158.229 62.116 350.805
158.725 62.152 351.010
159.199 62.180 351.167
159.688 62.214 351.356
160.187 62.251 351.565
160.641 62.270 351.676
161.175 62.321 351.961
161.622 62.337 352.052
162.148 62.384 352.318
162.612 62.407 352.447
163.157 62.461 352.750
163.598 62.474 352.828
164.088 62.507 353.010
164.559 62.532 353.152
165.033 62.557 353.297
165.539 62.596 353.513
166.021 62.624 353.674
166.541 62.667 353.917
167.031 62.699 354.094
167.516 62.728 354.258
168.002 62.757 354.426
168.536 62.805 354.694
168.988 62.821 354.786
169.534 62.873 355.077
169.987 62.889 355.171
170.519 62.935 355.432
171.001 62.962 355.584
171.495 62.994 355.762
171.965 63.017 355.890
172.480 63.055 356.109
173.019 63.103 356.377
173.477 63.120 356.476
173.980 63.154 356.669
174.465 63.182 356.823
175.031 63.238 357.143
175.496 63.258 357.254
176.016 63.298 357.477
176.474 63.314 357.573
177.010 63.360 357.827
177.494 63.385 357.974
178.013 63.424 358.191
178.505 63.453 358.353
179.019 63.489 358.558
179.555 63.533 358.807
180.041 63.559 358.955
180.589 63.607 359.225
181.006 63.609 359.234
181.541 63.652 359.477
182.022 63.676 359.612
182.609 63.736 359.955
183.088 63.759 360.083
183.593 63.791 360.264
184.112 63.827 360.470
184.597 63.852 360.608
185.155 63.902 360.889
185.686 63.942 361.116
186.210 63.979 361.327
186.620 63.978 361.318
187.167 64.023 361.574
187.680 64.056 361.762
188.250 64.109 362.060
188.734 64.132 362.191
189.260 64.169 362.401
189.754 64.196 362.549
190.310 64.243 362.816
190.825 64.276 363.003
191.352 64.313 363.212
191.905 64.359 363.471
192.439 64.398 363.691
192.952 64.430 363.871
193.327 64.415 363.790
193.920 64.474 364.120
194.429 64.504 364.289
195.001 64.555 364.577
195.522 64.589 364.768
196.063 64.629 364.994
196.567 64.657 365.153
197.062 64.682 365.294
197.610 64.724 365.530
198.086 64.742 365.634
198.710 64.809 366.012
199.166 64.820 366.076
199.750 64.873 366.377
200.232 64.893 366.489
200.804 64.942 366.765
201.314 64.971 366.927
201.843 65.006 367.123
202.373 65.040 367.319
202.856 65.060 367.430
203.469 65.121 367.776
203.959 65.143 367.898
204.521 65.187 368.149
204.953 65.190 368.166
205.581 65.255 368.534
206.065 65.275 368.643
206.666 65.331 368.961
207.218 65.371 369.189
207.737 65.401 369.357
208.266 65.434 369.544
208.768 65.459 369.682
209.346 65.506 369.952
209.837 65.527 370.069
210.455 65.587 370.409
20.202 53.318 299.175
20.551 53.331 299.252
20.903 53.353 299.373
21.255 53.374 299.489
21.620 53.427 299.790
21.971 53.443 299.881
22.324 53.463 299.992
22.679 53.488 300.130
23.035 53.514 300.278
23.382 53.520 300.309
23.731 53.529 300.358
24.099 53.580 300.647
24.460 53.615 300.842
24.804 53.612 300.827
25.170 53.656 301.073
31.998 54.095 303.534
32.369 54.132 303.745
32.731 54.154 303.865
33.094 54.177 303.996
33.452 54.191 304.076
33.813 54.210 304.183
34.176 54.233 304.310
34.541 54.257 304.447
34.911 54.288 304.621
35.284 54.324 304.823
35.649 54.347 304.951
36.014 54.369 305.076
36.378 54.390 305.190
36.750 54.422 305.369
40.800 54.681 306.826
41.177 54.713 307.006
41.545 54.734 307.123
41.917 54.759 307.264
42.286 54.780 307.379
42.664 54.812 307.563
43.036 54.836 307.694
43.407 54.859 307.821
43.771 54.871 307.893
44.137 54.887 307.979
44.506 54.906 308.088
44.895 54.949 308.328
45.285 54.993 308.574
45.664 55.022 308.739
46.037 55.044 308.863
46.410 55.066 308.986
46.780 55.084 309.089
47.154 55.106 309.211
47.533 55.134 309.367
47.907 55.157 309.493
48.284 55.180 309.627
48.661 55.205 309.767
49.037 55.228 309.893
49.413 55.250 310.018
49.803 55.288 310.232
50.172 55.302 310.311
50.551 55.327 310.448
50.921 55.342 310.531
51.309 55.376 310.725
51.692 55.404 310.879
52.078 55.435 311.053
52.446 55.447 311.121
52.842 55.487 311.346
53.215 55.503 311.440
53.595 55.527 311.569
53.961 55.535 311.618
54.364 55.581 311.875
54.745 55.605 312.007
55.132 55.633 312.166
55.506 55.649 312.257
55.900 55.684 312.455
56.291 55.716 312.633
56.672 55.737 312.753
57.053 55.759 312.875
57.442 55.788 313.035
57.821 55.807 313.143
58.211 55.836 313.304
58.592 55.856 313.419
58.983 55.886 313.585
59.362 55.903 313.682
59.756 55.935 313.859
60.145 55.962 314.013
60.540 55.993 314.188
60.925 56.016 314.317
61.310 56.038 314.440
61.697 56.061 314.568
62.086 56.087 314.713
62.484 56.119 314.895
62.874 56.145 315.038
63.265 56.171 315.183
63.640 56.183 315.251
64.042 56.218 315.447
64.424 56.235 315.544
64.819 56.263 315.700
65.208 56.286 315.833
65.622 56.330 316.078
66.010 56.351 316.198
66.410 56.382 316.371
66.793 56.400 316.469
67.185 56.423 316.602
67.570 56.441 316.702
67.978 56.478 316.910
68.364 56.496 317.011
68.774 56.535 317.226
69.165 56.556 317.346
69.576 56.594 317.561
69.950 56.601 317.600
70.359 56.637 317.802
70.753 56.660 317.931
71.155 56.690 318.099
71.541 56.706 318.189
71.940 56.733 318.338
72.315 56.741 318.382
72.702 56.757 318.475
73.115 56.794 318.679
73.539 56.839 318.932
73.966 56.885 319.194
74.371 56.915 319.358
74.776 56.944 319.523
75.194 56.983 319.739
75.584 57.000 319.839
75.947 56.997 319.820
76.340 57.016 319.929
76.748 57.046 320.095
77.173 57.089 320.336
77.562 57.104 320.423
77.978 57.140 320.620
78.384 57.167 320.775
78.815 57.213 321.032
79.203 57.227 321.111
79.614 57.257 321.280
80.005 57.273 321.370
80.432 57.314 321.601
80.826 57.332 321.698
81.240 57.363 321.876
81.642 57.386 322.003
82.058 57.419 322.186
82.462 57.442 322.317
82.858 57.460 322.420
83.272 57.490 322.587
83.691 57.523 322.774
84.112 57.558 322.969
84.510 57.577 323.073
84.915 57.600 323.203
85.325 57.626 323.348
85.740 57.655 323.515
86.157 57.686 323.686
86.578 57.719 323.870
86.983 57.741 323.995
87.430 57.791 324.273
87.824 57.804 324.350
88.257 57.844 324.574
88.642 57.852 324.618
89.067 57.886 324.809
89.484 57.915 324.969
89.928 57.960 325.225
90.292 57.954 325.192
90.761 58.015 325.535
91.163 58.034 325.637
91.509 58.015 325.535
91.929 58.045 325.699
92.303 58.045 325.700
92.734 58.080 325.899
93.172 58.120 326.124
93.595 58.150 326.292
93.997 58.167 326.387
94.378 58.171 326.410
94.794 58.196 326.550
95.203 58.217 326.667
95.469 58.151 326.296
95.970 58.228 326.726
96.189 58.133 326.196
96.710 58.221 326.690
96.940 58.134 326.202
97.442 58.211 326.630
97.678 58.128 326.165
98.158 58.190 326.514
98.399 58.111 326.073
98.889 58.179 326.454
99.166 58.122 326.132
99.549 58.126 326.158
99.874 58.098 325.998
100.204 58.072 325.854
100.571 58.068 325.829
104.776 58.960 330.836
105.166 58.966 330.869
105.569 58.979 330.941
106.001 59.008 331.105
106.412 59.025 331.200
106.868 59.067 331.434
107.279 59.084 331.529
107.710 59.111 331.685
108.143 59.140 331.843
108.585 59.173 332.031
109.002 59.192 332.140
109.452 59.230 332.349
109.887 59.258 332.508
110.338 59.296 332.719
110.791 59.334 332.931
111.210 59.353 333.040
111.645 59.381 333.199
112.067 59.402 333.315
112.521 59.440 333.527
112.949 59.463 333.659
113.383 59.490 333.810
113.780 59.497 333.849
114.271 59.553 334.163
114.741 59.598 334.415
115.167 59.620 334.537
115.571 59.630 334.595
116.014 59.660 334.764
116.440 59.682 334.884
116.916 59.728 335.147
117.362 59.760 335.322
117.821 59.797 335.531
118.287 59.838 335.761
118.686 59.845 335.799
119.123 59.871 335.945
119.528 59.880 335.998
119.982 59.914 336.190
120.439 59.949 336.387
120.929 60.001 336.677
121.363 60.025 336.809
121.811 60.055 336.977
122.230 60.071 337.066
122.685 60.104 337.253
123.123 60.128 337.390
123.593 60.169 337.617
124.057 60.206 337.825
124.505 60.235 337.987
124.952 60.263 338.148
125.405 60.294 338.322
125.874 60.333 338.538
126.322 60.361 338.698
126.788 60.398 338.905
127.210 60.413 338.990
127.671 60.448 339.183
128.090 60.461 339.260
128.574 60.506 339.508
128.996 60.521 339.594
129.498 60.574 339.889
129.908 60.582 339.939
130.387 60.624 340.170
130.839 60.653 340.332
131.277 60.674 340.452
131.736 60.705 340.629
132.197 60.738 340.810
132.645 60.764 340.956
133.103 60.794 341.126
133.575 60.831 341.331
134.011 60.851 341.444
134.528 60.907 341.760
134.954 60.922 341.846
135.428 60.959 342.050
135.834 60.965 342.085
136.338 61.014 342.363
136.792 61.042 342.516
137.267 61.078 342.720
137.730 61.109 342.894
138.204 61.144 343.092
138.661 61.172 343.247
139.143 61.211 343.466
139.610 61.243 343.644
140.058 61.266 343.776
140.540 61.304 343.988
140.972 61.320 344.079
141.444 61.353 344.265
141.890 61.376 344.390
142.444 61.444 344.772
142.867 61.456 344.839
143.317 61.479 344.969
143.754 61.496 345.067
144.274 61.549 345.363
144.728 61.573 345.499
145.194 61.603 345.664
145.664 61.634 345.837
146.137 61.666 346.018
146.623 61.703 346.228
147.083 61.729 346.373
147.563 61.764 346.567
148.010 61.784 346.682
148.510 61.827 346.920
148.970 61.852 347.064
149.489 61.902 347.345
149.879 61.898 347.323
150.406 61.951 347.620
150.910 61.994 347.861
151.386 62.026 348.039
151.890 62.068 348.277
152.330 62.085 348.369
152.824 62.123 348.582
153.317 62.161 348.794
153.776 62.184 348.927
154.242 62.211 349.075
154.731 62.246 349.272
155.173 62.262 349.365
155.726 62.323 349.706
156.142 62.329 349.739
156.680 62.383 350.043
157.130 62.402 350.150
157.627 62.440 350.363
158.096 62.466 350.509
158.585 62.501 350.702
159.073 62.534 350.890
159.558 62.566 351.069
160.056 62.603 351.279
160.520 62.627 351.410
161.037 62.671 351.660
161.503 62.695 351.793
162.027 62.742 352.054
162.468 62.756 352.135
163.004 62.807 352.419
163.451 62.823 352.510
163.950 62.859 352.713
164.410 62.880 352.830
164.915 62.918 353.045
165.423 62.957 353.264
165.897 62.983 353.409
166.412 63.024 353.641
166.891 63.052 353.796
167.383 63.084 353.978
167.881 63.119 354.171
168.372 63.150 354.348
168.840 63.173 354.477
169.378 63.222 354.750
169.844 63.244 354.874
170.391 63.296 355.165
170.870 63.322 355.312
171.363 63.354 355.489
171.847 63.382 355.645
172.336 63.411 355.813
172.861 63.454 356.052
173.331 63.476 356.177
173.838 63.512 356.378
174.299 63.531 356.484
174.892 63.598 356.859
175.366 63.621 356.989
175.864 63.653 357.168
176.341 63.677 357.304
176.870 63.720 357.545
177.356 63.747 357.696
177.875 63.786 357.915
178.365 63.814 358.072
178.856 63.843 358.232
179.378 63.882 358.455
179.876 63.913 358.626
180.432 63.964 358.913
180.887 63.979 358.997
181.386 64.010 359.170
181.866 64.034 359.304
182.477 64.103 359.695
182.954 64.126 359.820
183.451 64.155 359.985
183.948 64.184 360.149
184.431 64.208 360.284
184.988 64.258 360.563
185.529 64.302 360.811
186.056 64.341 361.029
186.475 64.342 361.037
187.016 64.386 361.282
187.486 64.405 361.388
188.085 64.468 361.743
188.569 64.492 361.873
189.104 64.532 362.102
189.604 64.561 362.264
190.137 64.601 362.487
190.659 64.637 362.688
191.177 64.671 362.880
191.748 64.723 363.173
192.291 64.765 363.410
192.808 64.799 363.600
193.196 64.789 363.544
193.701 64.818 363.707
194.237 64.858 363.929
194.829 64.916 364.256
195.355 64.952 364.455
195.889 64.990 364.672
196.396 65.019 364.835
196.908 65.050 365.007
197.445 65.089 365.225
197.932 65.111 365.350
198.503 65.161 365.629
198.968 65.176 365.712
199.583 65.240 366.071
200.059 65.258 366.172
200.641 65.310 366.467
201.133 65.333 366.597
201.694 65.379 366.851
202.210 65.409 367.024
202.714 65.436 367.174
203.277 65.482 367.429
203.760 65.501 367.540
204.359 65.558 367.857
204.779 65.557 367.852
205.391 65.618 368.193
205.882 65.639 368.315
206.498 65.701 368.661
207.014 65.730 368.825
207.551 65.766 369.027
208.095 65.804 369.239
208.602 65.831 369.387
209.147 65.869 369.601
209.652 65.894 369.743
210.294 65.962 370.126
20.189 53.626 298.981
20.535 53.635 299.030
20.890 53.664 299.188
21.240 53.680 299.281
21.604 53.732 299.569
21.955 53.747 299.655
22.310 53.774 299.803
22.666 53.801 299.957
23.016 53.816 300.040
23.364 53.823 300.077
23.720 53.850 300.230
31.973 54.400 303.295
32.344 54.439 303.514
32.705 54.459 303.625
33.067 54.481 303.746
33.426 54.499 303.847
33.793 54.528 304.006
34.156 54.549 304.127
34.522 54.576 304.273
34.888 54.602 304.422
35.260 54.637 304.613
