145.728 -55.503 298.751
146.064 -55.501 298.737
146.451 -55.517 298.826
146.792 -55.517 298.822
147.184 -55.535 298.921
147.519 -55.532 298.904
147.889 -55.542 298.960
148.266 -55.555 299.026
148.618 -55.558 299.043
148.972 -55.562 299.066
149.329 -55.567 299.093
149.705 -55.579 299.158
150.064 -55.585 299.190
150.468 -55.607 299.308
150.786 -55.598 299.258
151.181 -55.616 299.359
151.524 -55.616 299.357
151.904 -55.630 299.430
152.269 -55.637 299.471
152.631 -55.644 299.506
153.002 -55.654 299.560
153.363 -55.660 299.593
153.736 -55.671 299.650
154.095 -55.676 299.679
154.555 -55.718 299.904
154.847 -55.699 299.802
155.161 -55.688 299.745
155.474 -55.677 299.684
155.872 -55.696 299.787
156.243 -55.706 299.839
156.633 -55.722 299.926
156.980 -55.723 299.931
157.338 -55.727 299.957
157.737 -55.747 300.061
158.099 -55.753 300.095
158.481 -55.766 300.166
158.823 -55.765 300.160
159.208 -55.779 300.236
159.554 -55.780 300.239
159.959 -55.801 300.351
160.306 -55.802 300.356
160.687 -55.814 300.423
161.034 -55.815 300.426
161.397 -55.821 300.461
161.753 -55.825 300.481
162.137 -55.838 300.553
162.520 -55.851 300.622
162.856 -55.848 300.606
163.246 -55.863 300.689
163.602 -55.867 300.709
163.975 -55.876 300.759
164.330 -55.880 300.777
164.699 -55.888 300.819
165.061 -55.893 300.850
165.420 -55.898 300.874
165.810 -55.913 300.955
166.180 -55.921 301.000
166.568 -55.935 301.075
166.908 -55.933 301.065
167.304 -55.950 301.156
167.636 -55.946 301.131
168.052 -55.969 301.258
168.405 -55.971 301.270
168.750 -55.971 301.268
169.089 -55.969 301.257
169.453 -55.975 301.288
169.847 -55.991 301.374
170.192 -55.990 301.371
170.585 -56.006 301.454
170.936 -56.007 301.463
109.081 -54.504 295.198
109.434 -54.511 295.234
109.793 -54.521 295.288
110.139 -54.524 295.306
110.507 -54.539 295.385
110.851 -54.541 295.397
111.216 -54.554 295.467
111.551 -54.552 295.454
111.922 -54.567 295.537
112.242 -54.558 295.487
112.616 -54.575 295.578
112.972 -54.582 295.621
113.373 -54.612 295.783
113.719 -54.615 295.799
114.058 -54.615 295.798
114.411 -54.622 295.833
114.761 -54.626 295.859
115.110 -54.631 295.884
115.455 -54.633 295.895
115.822 -54.646 295.967
116.158 -54.644 295.955
116.514 -54.652 295.998
116.857 -54.654 296.006
117.225 -54.666 296.075
117.563 -54.665 296.070
117.896 -54.662 296.053
118.273 -54.679 296.146
118.635 -54.689 296.200
119.026 -54.713 296.328
119.361 -54.710 296.314
119.723 -54.720 296.368
120.079 -54.728 296.407
120.443 -54.739 296.466
120.779 -54.736 296.455
121.138 -54.745 296.501
121.488 -54.749 296.522
121.860 -54.763 296.600
122.197 -54.762 296.592
122.578 -54.780 296.689
122.926 -54.783 296.707
123.293 -54.795 296.771
123.631 -54.793 296.764
123.992 -54.802 296.811
124.348 -54.809 296.849
124.710 -54.818 296.899
125.064 -54.824 296.929
125.418 -54.830 296.959
125.786 -54.841 297.024
126.141 -54.848 297.058
126.516 -54.862 297.136
126.882 -54.873 297.195
127.249 -54.884 297.254
127.579 -54.879 297.227
127.940 -54.888 297.275
128.290 -54.891 297.294
128.678 -54.911 297.402
129.032 -54.917 297.431
129.397 -54.927 297.485
129.746 -54.930 297.501
130.091 -54.931 297.509
130.455 -54.941 297.561
130.811 -54.946 297.592
131.179 -54.958 297.653
131.518 -54.956 297.646
131.905 -54.975 297.749
132.254 -54.978 297.765
132.619 -54.988 297.817
132.964 -54.989 297.822
133.348 -55.006 297.916
133.721 -55.019 297.987
134.068 -55.021 297.997
134.430 -55.029 298.039
134.776 -55.031 298.049
135.119 -55.031 298.050
135.484 -55.040 298.100
135.851 -55.050 298.154
136.213 -55.058 298.199
136.561 -55.061 298.211
136.908 -55.062 298.219
137.280 -55.074 298.285
137.669 -55.093 298.385
138.033 -55.101 298.432
138.399 -55.111 298.481
138.772 -55.122 298.546
139.107 -55.119 298.529
139.439 -55.115 298.506
139.809 -55.126 298.564
140.187 -55.140 298.640
140.563 -55.153 298.711
140.908 -55.154 298.715
141.279 -55.165 298.774
141.667 -55.182 298.868
142.052 -55.198 298.956
142.394 -55.198 298.953
142.735 -55.197 298.949
143.071 -55.194 298.933
143.455 -55.210 299.018
143.844 -55.227 299.112
144.228 -55.243 299.197
144.579 -55.246 299.213
144.920 -55.245 299.208
145.287 -55.253 299.255
145.620 -55.250 299.235
146.024 -55.272 299.358
146.339 -55.262 299.300
146.736 -55.282 299.407
147.089 -55.285 299.427
147.468 -55.298 299.499
147.812 -55.298 299.499
148.181 -55.308 299.549
148.563 -55.322 299.625
148.895 -55.317 299.601
149.253 -55.323 299.630
149.622 -55.332 299.679
149.989 -55.340 299.726
150.364 -55.351 299.786
150.764 -55.372 299.898
151.089 -55.365 299.859
151.461 -55.375 299.913
151.837 -55.387 299.976
152.219 -55.400 300.050
152.572 -55.403 300.067
152.939 -55.411 300.111
153.310 -55.421 300.163
153.652 -55.420 300.157
154.029 -55.432 300.221
154.424 -55.450 300.318
154.816 -55.467 300.410
155.124 -55.454 300.339
155.464 -55.452 300.330
155.833 -55.460 300.375
156.199 -55.468 300.416
156.584 -55.482 300.494
156.905 -55.474 300.448
157.345 -55.507 300.629
157.701 -55.511 300.648
158.073 -55.520 300.699
158.418 -55.520 300.699
158.797 -55.532 300.763
159.150 -55.534 300.777
159.531 -55.547 300.846
159.896 -55.554 300.882
160.274 -55.565 300.943
160.640 -55.572 300.981
160.999 -55.577 301.007
161.385 -55.591 301.081
161.717 -55.586 301.056
162.106 -55.601 301.137
162.445 -55.599 301.124
162.842 -55.616 301.219
163.188 -55.616 301.219
163.591 -55.635 301.324
163.936 -55.635 301.321
164.320 -55.648 301.392
164.681 -55.653 301.420
165.044 -55.659 301.451
165.418 -55.668 301.501
165.767 -55.669 301.506
166.162 -55.685 301.595
166.519 -55.689 301.613
166.906 -55.702 301.687
167.250 -55.702 301.682
167.650 -55.720 301.780
168.037 -55.733 301.851
168.424 -55.746 301.925
168.739 -55.736 301.868
169.074 -55.732 301.847
169.443 -55.739 301.887
169.843 -55.757 301.981
170.239 -55.773 302.069
170.596 -55.776 302.087
170.969 -55.785 302.133
171.322 -55.787 302.144
109.290 -54.269 295.763
109.638 -54.273 295.784
109.994 -54.281 295.830
110.350 -54.289 295.872
110.724 -54.306 295.965
111.079 -54.313 296.004
111.426 -54.317 296.023
111.774 -54.321 296.045
112.134 -54.331 296.098
112.491 -54.339 296.144
112.844 -54.345 296.178
113.207 -54.356 296.238
113.572 -54.368 296.302
113.912 -54.368 296.302
114.272 -54.377 296.354
114.637 -54.389 296.416
114.978 -54.389 296.418
115.333 -54.396 296.457
115.693 -54.405 296.505
116.050 -54.413 296.547
116.391 -54.413 296.550
116.767 -54.430 296.639
117.103 -54.428 296.627
117.468 -54.439 296.690
117.787 -54.429 296.636
118.175 -54.451 296.753
118.521 -54.453 296.766
118.929 -54.484 296.935
119.284 -54.491 296.971
119.611 -54.484 296.936
119.967 -54.491 296.971
120.313 -54.493 296.985
120.674 -54.502 297.034
121.031 -54.510 297.073
121.402 -54.523 297.145
121.746 -54.524 297.152
122.103 -54.531 297.192
122.457 -54.537 297.222
122.823 -54.548 297.281
123.191 -54.560 297.347
123.546 -54.566 297.379
123.887 -54.565 297.377
124.251 -54.575 297.431
124.609 -54.582 297.470
124.952 -54.583 297.475
125.319 -54.594 297.536
125.669 -54.598 297.555
126.043 -54.612 297.630
126.391 -54.615 297.646
126.781 -54.635 297.759
127.156 -54.650 297.837
127.499 -54.650 297.840
127.835 -54.647 297.825
128.209 -54.661 297.899
128.560 -54.665 297.920
128.937 -54.679 298.000
129.298 -54.687 298.043
129.645 -54.689 298.054
129.986 -54.689 298.052
130.341 -54.694 298.080
130.711 -54.706 298.145
131.059 -54.708 298.157
131.429 -54.720 298.220
131.779 -54.723 298.237
132.170 -54.743 298.347
132.507 -54.741 298.333
132.880 -54.753 298.402
133.242 -54.761 298.445
133.633 -54.781 298.553
133.980 -54.783 298.562
134.342 -54.791 298.605
134.691 -54.793 298.619
135.035 -54.794 298.621
135.407 -54.805 298.685
135.755 -54.808 298.698
136.156 -54.831 298.824
136.473 -54.820 298.767
136.855 -54.836 298.851
137.190 -54.833 298.835
137.595 -54.857 298.969
137.929 -54.854 298.949
138.311 -54.869 299.032
138.670 -54.875 299.065
139.017 -54.876 299.073
139.367 -54.879 299.088
139.708 -54.878 299.083
140.093 -54.895 299.172
140.464 -54.905 299.230
140.840 -54.918 299.298
141.169 -54.912 299.268
141.579 -54.938 299.408
141.917 -54.936 299.396
142.317 -54.957 299.514
142.631 -54.946 299.451
143.006 -54.958 299.516
143.365 -54.963 299.548
143.754 -54.981 299.641
144.150 -55.001 299.750
144.506 -55.005 299.774
144.870 -55.013 299.816
145.210 -55.011 299.806
145.563 -55.014 299.824
145.919 -55.019 299.849
146.293 -55.030 299.909
146.636 -55.029 299.907
147.026 -55.047 300.000
147.370 -55.046 299.998
147.761 -55.064 300.093
148.124 -55.070 300.130
148.495 -55.080 300.184
148.860 -55.088 300.225
149.225 -55.095 300.266
149.592 -55.104 300.311
149.944 -55.106 300.325
150.348 -55.128 300.443
150.692 -55.128 300.442
151.073 -55.141 300.513
151.406 -55.136 300.489
151.787 -55.149 300.559
152.150 -55.156 300.594
152.532 -55.169 300.667
152.899 -55.177 300.710
153.273 -55.187 300.767
153.641 -55.195 300.810
153.993 -55.198 300.824
154.374 -55.210 300.893
154.730 -55.214 300.913
155.113 -55.227 300.986
155.421 -55.214 300.913
155.822 -55.234 301.021
156.156 -55.230 300.997
156.545 -55.245 301.081
156.915 -55.254 301.129
157.313 -55.272 301.229
157.678 -55.278 301.264
158.033 -55.282 301.281
158.406 -55.291 301.333
158.745 -55.289 301.320
159.141 -55.306 301.415
159.471 -55.300 301.383
159.874 -55.320 301.491
160.224 -55.322 301.500
160.616 -55.337 301.586
160.951 -55.333 301.564
161.342 -55.349 301.648
161.700 -55.353 301.668
162.062 -55.358 301.697
162.453 -55.373 301.780
162.804 -55.375 301.789
163.198 -55.391 301.877
163.529 -55.386 301.848
163.937 -55.407 301.962
164.276 -55.404 301.948
164.668 -55.419 302.030
165.012 -55.418 302.024
165.396 -55.430 302.092
165.768 -55.439 302.139
166.124 -55.442 302.156
166.513 -55.456 302.232
166.860 -55.456 302.231
167.253 -55.471 302.315
167.598 -55.471 302.311
168.034 -55.500 302.470
168.384 -55.501 302.476
168.707 -55.493 302.431
169.032 -55.486 302.393
169.400 -55.492 302.429
169.784 -55.504 302.495
170.159 -55.513 302.544
170.567 -55.533 302.652
170.875 -55.520 302.580
171.291 -55.542 302.702
171.625 -55.538 302.679
109.164 -54.035 296.344
109.526 -54.046 296.401
109.876 -54.051 296.428
110.223 -54.054 296.444
110.569 -54.056 296.459
110.925 -54.064 296.502
111.275 -54.069 296.528
111.647 -54.084 296.612
112.004 -54.092 296.654
112.389 -54.113 296.771
112.717 -54.107 296.738
113.080 -54.118 296.797
113.419 -54.117 296.791
113.779 -54.126 296.843
114.140 -54.136 296.894
114.508 -54.149 296.965
114.872 -54.159 297.024
115.217 -54.161 297.035
115.573 -54.168 297.071
115.934 -54.178 297.125
116.280 -54.180 297.135
116.620 -54.179 297.132
116.978 -54.187 297.176
117.342 -54.197 297.233
117.679 -54.195 297.221
118.042 -54.206 297.278
118.402 -54.214 297.325
118.781 -54.231 297.417
119.136 -54.237 297.451
119.489 -54.242 297.480
119.843 -54.248 297.511
120.193 -54.252 297.530
120.535 -54.252 297.533
120.907 -54.266 297.608
121.273 -54.277 297.668
121.651 -54.293 297.756
121.978 -54.286 297.720
122.360 -54.304 297.817
122.684 -54.296 297.773
123.066 -54.314 297.871
123.431 -54.324 297.926
123.791 -54.332 297.968
124.143 -54.336 297.993
124.497 -54.341 298.021
124.852 -54.347 298.050
125.206 -54.352 298.079
125.575 -54.363 298.142
125.938 -54.372 298.191
126.316 -54.387 298.274
126.643 -54.381 298.239
127.041 -54.405 298.368
127.383 -54.405 298.369
127.767 -54.422 298.465
128.107 -54.421 298.459
128.465 -54.428 298.495
128.820 -54.433 298.522
129.206 -54.451 298.622
129.551 -54.452 298.627
129.893 -54.451 298.626
130.237 -54.452 298.627
130.596 -54.458 298.664
130.987 -54.479 298.774
131.335 -54.481 298.786
131.702 -54.490 298.838
132.053 -54.494 298.857
132.426 -54.506 298.925
132.773 -54.508 298.933
133.161 -54.526 299.034
133.525 -54.534 299.080
133.891 -54.544 299.131
134.242 -54.546 299.147
134.600 -54.552 299.179
134.962 -54.560 299.219
135.326 -54.568 299.265
135.681 -54.573 299.290
136.066 -54.589 299.381
136.413 -54.591 299.389
136.771 -54.596 299.418
137.144 -54.608 299.484
137.501 -54.613 299.513
137.868 -54.622 299.562
138.210 -54.621 299.557
138.594 -54.637 299.643
138.944 -54.640 299.657
139.303 -54.645 299.689
139.637 -54.641 299.666
140.012 -54.653 299.733
140.400 -54.671 299.827
140.760 -54.677 299.861
141.122 -54.684 299.899
141.487 -54.691 299.942
141.862 -54.703 300.007
142.233 -54.713 300.063
142.612 -54.727 300.134
142.954 -54.725 300.129
143.327 -54.736 300.189
143.702 -54.748 300.252
144.075 -54.759 300.311
144.449 -54.770 300.371
144.841 -54.788 300.470
145.158 -54.777 300.411
145.496 -54.774 300.397
145.871 -54.786 300.458
146.229 -54.791 300.486
146.584 -54.794 300.506
146.943 -54.799 300.534
147.313 -54.809 300.584
147.670 -54.813 300.609
148.072 -54.834 300.726
148.435 -54.841 300.761
148.788 -54.844 300.776
149.156 -54.852 300.823
149.503 -54.852 300.825
149.882 -54.865 300.893
150.258 -54.876 300.954
150.648 -54.892 301.043
150.991 -54.891 301.037
151.357 -54.899 301.078
151.704 -54.899 301.079
152.065 -54.904 301.109
152.446 -54.917 301.181
152.833 -54.932 301.260
153.210 -54.943 301.323
153.583 -54.953 301.374
153.946 -54.959 301.408
154.294 -54.960 301.413
154.679 -54.973 301.487
155.035 -54.977 301.508
155.395 -54.982 301.534
155.755 -54.986 301.560
156.140 -55.000 301.635
156.492 -55.002 301.646
156.860 -55.010 301.687
157.240 -55.021 301.752
157.635 -55.038 301.845
158.002 -55.046 301.884
158.341 -55.043 301.869
158.712 -55.051 301.915
159.066 -55.054 301.930
159.459 -55.070 302.017
159.811 -55.072 302.027
160.190 -55.083 302.087
160.549 -55.087 302.111
160.910 -55.092 302.136
161.284 -55.101 302.188
161.654 -55.109 302.231
162.040 -55.122 302.303
162.389 -55.123 302.307
162.781 -55.138 302.390
163.128 -55.138 302.391
163.509 -55.149 302.452
163.884 -55.158 302.503
164.266 -55.170 302.567
164.608 -55.168 302.557
164.998 -55.183 302.635
165.363 -55.188 302.668
165.728 -55.194 302.699
166.109 -55.205 302.760
166.468 -55.209 302.781
166.846 -55.219 302.835
167.206 -55.223 302.859
167.646 -55.254 303.025
168.000 -55.255 303.035
168.349 -55.256 303.037
168.626 -55.233 302.910
168.973 -55.232 302.908
169.371 -55.249 302.999
169.779 -55.268 303.106
170.161 -55.279 303.166
170.555 -55.294 303.248
170.929 -55.303 303.294
171.282 -55.304 303.302
171.656 -55.312 303.348
172.007 -55.313 303.352
109.735 -53.808 296.967
110.071 -53.805 296.952
110.396 -53.798 296.911
110.752 -53.805 296.951
111.142 -53.829 297.082
111.507 -53.840 297.145
111.876 -53.854 297.220
112.248 -53.868 297.301
112.595 -53.871 297.317
112.944 -53.875 297.336
113.285 -53.874 297.334
113.637 -53.879 297.362
114.004 -53.892 297.429
114.381 -53.908 297.520
114.756 -53.924 297.608
115.109 -53.930 297.638
115.445 -53.926 297.621
115.810 -53.937 297.681
116.158 -53.941 297.698
116.523 -53.951 297.757
116.845 -53.942 297.707
117.233 -53.963 297.824
117.554 -53.953 297.770
117.957 -53.981 297.923
118.294 -53.979 297.911
118.667 -53.993 297.988
119.021 -53.998 298.018
119.388 -54.010 298.082
119.752 -54.020 298.136
120.099 -54.022 298.146
120.443 -54.022 298.150
120.792 -54.025 298.167
121.170 -54.041 298.255
121.529 -54.049 298.295
121.893 -54.058 298.347
122.239 -54.060 298.356
122.607 -54.071 298.417
122.951 -54.072 298.422
123.340 -54.092 298.533
123.700 -54.099 298.575
124.056 -54.105 298.608
124.403 -54.107 298.617
124.755 -54.111 298.639
125.107 -54.115 298.659
125.468 -54.123 298.703
125.839 -54.135 298.770
126.219 -54.150 298.856
126.560 -54.149 298.851
126.912 -54.153 298.872
127.292 -54.169 298.960
127.642 -54.172 298.974
128.012 -54.183 299.037
128.349 -54.180 299.022
128.725 -54.194 299.098
129.083 -54.200 299.132
129.457 -54.213 299.202
129.809 -54.217 299.223
130.146 -54.214 299.207
130.500 -54.218 299.230
130.881 -54.234 299.316
131.271 -54.253 299.422
131.608 -54.250 299.407
131.991 -54.266 299.494
132.328 -54.263 299.480
132.706 -54.277 299.557
133.057 -54.280 299.573
133.435 -54.294 299.649
133.790 -54.298 299.674
134.152 -54.305 299.712
134.509 -54.311 299.741
134.876 -54.320 299.793
135.244 -54.330 299.846
135.591 -54.330 299.850
135.987 -54.351 299.965
136.313 -54.344 299.924
136.697 -54.360 300.012
137.022 -54.352 299.969
137.419 -54.373 300.083
137.748 -54.367 300.050
138.140 -54.385 300.153
138.487 -54.386 300.159
138.857 -54.396 300.212
139.223 -54.404 300.259
139.568 -54.405 300.260
139.934 -54.413 300.305
140.294 -54.419 300.338
140.678 -54.434 300.421
141.017 -54.431 300.407
141.415 -54.452 300.520
141.764 -54.454 300.530
142.148 -54.468 300.612
142.505 -54.473 300.636
142.900 -54.492 300.742
143.251 -54.494 300.753
143.635 -54.509 300.834
143.967 -54.504 300.806
144.346 -54.516 300.876
144.766 -54.544 301.032
145.067 -54.527 300.937
145.432 -54.535 300.978
145.778 -54.535 300.980
146.181 -54.556 301.097
146.494 -54.544 301.030
146.912 -54.571 301.178
147.259 -54.571 301.180
147.632 -54.581 301.235
148.004 -54.591 301.289
148.388 -54.605 301.367
148.756 -54.613 301.410
149.097 -54.611 301.400
149.445 -54.612 301.404
149.796 -54.614 301.415
150.193 -54.632 301.517
150.553 -54.637 301.545
150.964 -54.661 301.674
151.282 -54.651 301.617
151.674 -54.667 301.707
152.017 -54.666 301.701
152.395 -54.677 301.763
152.780 -54.691 301.839
153.174 -54.708 301.933
153.526 -54.710 301.943
153.878 -54.712 301.954
154.274 -54.729 302.051
154.611 -54.725 302.030
155.005 -54.742 302.122
155.340 -54.738 302.099
155.738 -54.756 302.200
156.081 -54.755 302.191
156.473 -54.770 302.278
156.828 -54.773 302.293
157.224 -54.790 302.387
157.583 -54.794 302.410
157.934 -54.796 302.418
158.305 -54.804 302.462
158.667 -54.809 302.490
159.048 -54.821 302.555
159.391 -54.819 302.546
159.791 -54.837 302.645
160.125 -54.832 302.620
160.545 -54.857 302.757
160.868 -54.849 302.712
161.251 -54.861 302.777
161.592 -54.859 302.765
161.987 -54.874 302.853
162.367 -54.886 302.914
162.734 -54.892 302.949
163.122 -54.905 303.024
163.470 -54.905 303.023
163.867 -54.922 303.115
164.211 -54.920 303.106
164.597 -54.933 303.177
164.949 -54.934 303.183
165.341 -54.949 303.265
165.698 -54.952 303.280
166.079 -54.963 303.340
166.460 -54.974 303.400
166.813 -54.975 303.408
167.200 -54.988 303.478
167.590 -55.001 303.553
168.008 -55.024 303.680
168.314 -55.010 303.602
168.628 -54.999 303.541
168.934 -54.985 303.464
169.319 -54.997 303.529
169.740 -55.020 303.658
170.124 -55.032 303.722
170.517 -55.046 303.800
170.866 -55.046 303.800
171.282 -55.068 303.920
171.593 -55.056 303.853
172.004 -55.075 303.961
172.346 -55.073 303.950
109.966 -53.580 297.593
110.297 -53.574 297.563
110.668 -53.589 297.642
110.985 -53.577 297.577
111.435 -53.629 297.866
111.788 -53.634 297.895
112.135 -53.636 297.908
112.461 -53.629 297.864
112.817 -53.635 297.901
113.148 -53.630 297.874
113.499 -53.634 297.896
113.863 -53.645 297.955
114.238 -53.660 298.038
114.614 -53.676 298.126
114.983 -53.688 298.197
115.328 -53.689 298.202
115.673 -53.691 298.209
116.029 -53.697 298.245
116.373 -53.698 298.247
116.725 -53.702 298.274
117.060 -53.699 298.255
117.399 -53.697 298.244
117.823 -53.734 298.452
118.194 -53.747 298.523
118.535 -53.746 298.519
118.890 -53.752 298.550
119.252 -53.760 298.597
119.622 -53.773 298.666
119.974 -53.777 298.687
120.333 -53.784 298.727
120.686 -53.788 298.751
121.035 -53.791 298.767
121.410 -53.805 298.844
121.749 -53.803 298.834
122.129 -53.819 298.925
122.478 -53.822 298.940
122.853 -53.836 299.015
123.209 -53.842 299.048
123.592 -53.859 299.143
123.945 -53.863 299.165
124.291 -53.864 299.172
124.644 -53.868 299.195
125.003 -53.875 299.231
125.372 -53.885 299.291
125.727 -53.890 299.318
126.117 -53.910 299.429
126.457 -53.909 299.421
126.846 -53.928 299.527
127.187 -53.927 299.520
127.564 -53.940 299.597
127.882 -53.930 299.537
128.257 -53.943 299.610
128.619 -53.950 299.652
129.002 -53.966 299.741
129.357 -53.971 299.767
129.727 -53.982 299.827
130.069 -53.981 299.822
130.413 -53.981 299.820
130.787 -53.993 299.890
131.166 -54.007 299.967
131.535 -54.017 300.024
131.885 -54.020 300.036
132.258 -54.031 300.100
132.600 -54.030 300.096
132.969 -54.040 300.150
133.311 -54.039 300.145
133.697 -54.056 300.237
134.045 -54.057 300.243
134.411 -54.066 300.293
134.772 -54.072 300.328
135.146 -54.084 300.392
135.505 -54.089 300.423
135.896 -54.108 300.526
136.228 -54.103 300.497
136.598 -54.112 300.551
136.950 -54.115 300.566
137.301 -54.118 300.580
137.681 -54.131 300.655
138.045 -54.139 300.697
138.437 -54.157 300.797
138.770 -54.152 300.770
139.154 -54.167 300.855
139.506 -54.170 300.870
139.882 -54.181 300.935
140.231 -54.183 300.942
140.602 -54.192 300.996
140.976 -54.203 301.057
141.347 -54.213 301.110
141.711 -54.220 301.150
142.070 -54.225 301.178
142.453 -54.239 301.256
142.823 -54.248 301.307
143.195 -54.258 301.361
143.541 -54.258 301.361
143.898 -54.262 301.385
144.259 -54.268 301.416
144.652 -54.286 301.514
145.010 -54.290 301.537
145.354 -54.289 301.533
145.716 -54.295 301.567
146.084 -54.303 301.612
146.473 -54.319 301.698
146.822 -54.320 301.704
147.216 -54.337 301.801
147.565 -54.338 301.806
147.958 -54.355 301.901
148.305 -54.355 301.902
148.669 -54.362 301.936
149.020 -54.363 301.946
149.363 -54.362 301.939
149.723 -54.367 301.965
150.092 -54.375 302.010
150.497 -54.396 302.128
150.867 -54.404 302.173
151.236 -54.412 302.218
151.590 -54.415 302.231
152.000 -54.437 302.356
152.332 -54.432 302.327
152.718 -54.446 302.404
153.090 -54.455 302.452
153.450 -54.459 302.477
153.824 -54.468 302.529
154.203 -54.480 302.592
154.563 -54.484 302.617
154.938 -54.494 302.670
155.331 -54.510 302.759
155.656 -54.502 302.715
156.037 -54.513 302.780
156.399 -54.518 302.807
156.808 -54.540 302.925
157.157 -54.540 302.927
157.532 -54.549 302.979
157.873 -54.547 302.966
158.243 -54.555 303.009
158.626 -54.567 303.077
158.989 -54.572 303.104
159.348 -54.576 303.126
159.721 -54.584 303.174
160.095 -54.593 303.222
160.481 -54.606 303.294
160.838 -54.609 303.309
161.198 -54.613 303.331
161.552 -54.615 303.343
161.939 -54.628 303.415
162.322 -54.640 303.480
162.700 -54.650 303.536
163.060 -54.653 303.557
163.445 -54.665 303.623
163.793 -54.665 303.623
164.188 -54.681 303.708
164.538 -54.681 303.711
164.934 -54.697 303.798
165.299 -54.702 303.827
165.671 -54.710 303.870
166.034 -54.714 303.895
166.409 -54.723 303.943
166.789 -54.733 304.000
167.162 -54.741 304.043
167.564 -54.758 304.139
167.924 -54.762 304.159
168.313 -54.775 304.231
168.627 -54.763 304.167
168.997 -54.770 304.203
169.387 -54.783 304.277
169.770 -54.794 304.338
170.111 -54.791 304.322
170.513 -54.808 304.417
170.887 -54.816 304.460
171.261 -54.824 304.503
171.643 -54.834 304.561
171.991 -54.834 304.558
172.383 -54.847 304.633
172.727 -54.845 304.622
110.160 -53.332 298.118
110.499 -53.330 298.108
110.854 -53.336 298.143
111.269 -53.371 298.337
111.679 -53.403 298.518
111.993 -53.390 298.441
112.346 -53.395 298.468
112.680 -53.390 298.445
113.023 -53.391 298.446
113.361 -53.388 298.434
113.749 -53.409 298.551
114.117 -53.421 298.618
114.480 -53.431 298.672
114.848 -53.442 298.735
115.199 -53.446 298.756
115.548 -53.449 298.772
115.878 -53.443 298.738
116.248 -53.455 298.807
116.576 -53.448 298.769
116.959 -53.467 298.871
117.300 -53.466 298.867
117.702 -53.492 299.015
118.082 -53.509 299.109
118.473 -53.531 299.229
118.805 -53.525 299.198
119.143 -53.523 299.184
119.501 -53.529 299.220
119.870 -53.540 299.283
120.234 -53.550 299.335
120.574 -53.548 299.326
120.938 -53.557 299.377
121.290 -53.561 299.397
121.662 -53.573 299.465
122.006 -53.573 299.465
122.386 -53.589 299.555
122.740 -53.593 299.579
123.105 -53.602 299.630
123.461 -53.608 299.660
123.838 -53.622 299.739
124.179 -53.621 299.732
124.544 -53.629 299.781
124.893 -53.632 299.793
125.291 -53.655 299.922
125.629 -53.652 299.906
125.998 -53.662 299.965
126.366 -53.672 300.020
126.738 -53.684 300.086
127.095 -53.689 300.115
127.443 -53.691 300.123
127.793 -53.693 300.135
128.124 -53.687 300.104
128.519 -53.708 300.220
128.899 -53.723 300.303
129.278 -53.737 300.383
129.630 -53.740 300.400
129.978 -53.741 300.407
130.339 -53.748 300.443
130.698 -53.754 300.475
131.065 -53.763 300.527
131.428 -53.770 300.567
131.796 -53.779 300.618
132.139 -53.778 300.613
132.534 -53.799 300.727
132.875 -53.797 300.717
133.236 -53.803 300.753
133.593 -53.808 300.779
133.974 -53.822 300.860
134.322 -53.823 300.864
134.692 -53.833 300.919
135.044 -53.836 300.933
135.416 -53.846 300.992
135.798 -53.861 301.074
136.128 -53.854 301.038
136.513 -53.870 301.126
136.854 -53.868 301.116
137.227 -53.879 301.174
137.584 -53.883 301.199
137.971 -53.899 301.290
138.332 -53.905 301.321
138.701 -53.914 301.371
139.049 -53.915 301.375
139.410 -53.921 301.409
139.792 -53.934 301.486
140.145 -53.937 301.500
140.522 -53.949 301.567
140.879 -53.953 301.588
141.286 -53.976 301.719
141.608 -53.967 301.667
141.966 -53.971 301.691
142.322 -53.975 301.711
142.718 -53.994 301.817
143.075 -53.998 301.839
143.465 -54.014 301.930
143.812 -54.014 301.930
144.186 -54.024 301.987
144.551 -54.031 302.027
144.931 -54.043 302.095
145.297 -54.050 302.134
145.649 -54.052 302.145
146.035 -54.067 302.226
146.401 -54.074 302.266
146.795 -54.091 302.363
147.119 -54.083 302.314
147.517 -54.101 302.419
147.886 -54.109 302.464
148.279 -54.126 302.556
148.609 -54.119 302.520
148.987 -54.131 302.584
149.376 -54.146 302.668
149.720 -54.144 302.659
150.086 -54.151 302.698
150.441 -54.154 302.713
150.827 -54.168 302.790
151.164 -54.164 302.767
151.562 -54.182 302.868
151.928 -54.188 302.904
152.319 -54.204 302.992
152.654 -54.199 302.965
153.011 -54.202 302.984
153.367 -54.205 303.000
153.771 -54.225 303.110
154.172 -54.243 303.213
154.531 -54.247 303.235
154.909 -54.258 303.293
155.255 -54.257 303.289
155.636 -54.268 303.353
155.981 -54.267 303.346
156.379 -54.285 303.443
156.738 -54.288 303.463
157.116 -54.298 303.520
157.469 -54.300 303.528
157.829 -54.304 303.552
158.208 -54.314 303.609
158.580 -54.322 303.654
158.961 -54.333 303.716
159.325 -54.339 303.746
159.715 -54.353 303.823
160.043 -54.345 303.783
160.460 -54.369 303.913
160.817 -54.371 303.927
161.178 -54.376 303.952
161.524 -54.375 303.946
161.912 -54.388 304.019
162.289 -54.397 304.070
162.677 -54.410 304.144
163.066 -54.423 304.217
163.407 -54.420 304.202
163.799 -54.435 304.282
164.139 -54.431 304.264
164.538 -54.448 304.356
164.887 -54.447 304.354
165.266 -54.457 304.409
165.620 -54.459 304.418
166.023 -54.476 304.516
166.382 -54.479 304.533
166.766 -54.491 304.595
167.157 -54.504 304.670
167.543 -54.516 304.736
167.929 -54.528 304.802
168.236 -54.514 304.724
168.595 -54.517 304.741
168.944 -54.516 304.739
169.351 -54.535 304.841
169.749 -54.550 304.927
170.100 -54.550 304.928
170.466 -54.555 304.957
170.831 -54.560 304.984
171.209 -54.569 305.033
171.552 -54.567 305.020
171.961 -54.585 305.124
172.301 -54.582 305.106
172.701 -54.598 305.194
173.054 -54.599 305.198
109.697 -53.097 298.722
110.048 -53.101 298.743
110.401 -53.105 298.769
110.733 -53.100 298.740
111.145 -53.133 298.926
111.528 -53.152 299.032
111.889 -53.160 299.078
112.220 -53.155 299.046
112.585 -53.165 299.104
112.908 -53.155 299.049
113.250 -53.154 299.044
113.597 -53.156 299.054
114.007 -53.187 299.229
114.349 -53.186 299.225
114.707 -53.193 299.263
115.061 -53.198 299.291
115.408 -53.200 299.300
115.743 -53.196 299.277
116.098 -53.200 299.304
116.457 -53.208 299.345
116.795 -53.205 299.331
117.192 -53.229 299.467
117.593 -53.255 299.611
117.987 -53.278 299.740
118.323 -53.274 299.719
118.701 -53.289 299.804
119.031 -53.283 299.768
119.382 -53.286 299.786
119.742 -53.293 299.825
120.123 -53.309 299.915
120.462 -53.307 299.903
120.816 -53.311 299.927
121.179 -53.319 299.972
121.528 -53.321 299.984
121.911 -53.338 300.078
122.253 -53.337 300.071
122.626 -53.349 300.142
122.970 -53.349 300.141
123.365 -53.371 300.264
123.718 -53.374 300.283
124.093 -53.387 300.355
124.438 -53.387 300.355
124.790 -53.390 300.373
125.188 -53.413 300.500
125.521 -53.408 300.473
125.885 -53.416 300.516
126.251 -53.425 300.567
126.636 -53.442 300.661
126.981 -53.442 300.660
127.338 -53.447 300.689
127.678 -53.444 300.676
128.041 -53.452 300.718
128.383 -53.450 300.710
128.800 -53.480 300.878
129.175 -53.492 300.946
129.542 -53.501 300.995
129.881 -53.498 300.981
130.252 -53.509 301.040
130.603 -53.511 301.052
130.961 -53.516 301.081
131.327 -53.525 301.128
131.679 -53.527 301.141
132.040 -53.533 301.175
132.403 -53.540 301.215
132.787 -53.555 301.300
133.121 -53.551 301.274
133.507 -53.567 301.364
133.853 -53.567 301.365
134.238 -53.582 301.451
134.582 -53.582 301.448
134.956 -53.593 301.510
135.307 -53.594 301.521
135.695 -53.611 301.613
136.050 -53.614 301.632
136.418 -53.623 301.680
136.781 -53.629 301.717
137.132 -53.631 301.728
137.520 -53.647 301.817
137.869 -53.648 301.823
138.278 -53.672 301.959
138.601 -53.663 301.908
138.989 -53.679 301.997
139.321 -53.673 301.964
139.716 -53.692 302.070
140.080 -53.699 302.107
140.451 -53.708 302.159
140.823 -53.717 302.212
141.192 -53.726 302.260
141.549 -53.730 302.281
141.912 -53.736 302.315
142.278 -53.743 302.354
142.641 -53.748 302.387
143.032 -53.765 302.481
143.393 -53.770 302.509
143.764 -53.779 302.560
144.125 -53.784 302.588
144.508 -53.797 302.661
144.873 -53.804 302.698
145.228 -53.807 302.715
145.598 -53.815 302.762
145.973 -53.825 302.817
146.369 -53.843 302.918
146.730 -53.847 302.944
147.095 -53.854 302.979
147.424 -53.847 302.942
147.824 -53.866 303.048
148.210 -53.880 303.125
148.574 -53.885 303.158
148.887 -53.873 303.087
149.293 -53.894 303.204
149.658 -53.900 303.239
150.023 -53.906 303.272
150.379 -53.909 303.288
150.736 -53.912 303.305
151.125 -53.926 303.387
151.485 -53.930 303.411
151.882 -53.948 303.509
152.249 -53.954 303.545
152.643 -53.970 303.635
152.951 -53.956 303.555
153.295 -53.954 303.545
153.684 -53.968 303.625
154.114 -53.997 303.786
154.505 -54.012 303.869
154.858 -54.013 303.877
155.216 -54.016 303.895
155.579 -54.021 303.922
155.967 -54.035 303.999
156.296 -54.028 303.959
156.685 -54.041 304.036
157.042 -54.044 304.052
157.451 -54.065 304.167
157.790 -54.061 304.148
158.156 -54.067 304.179
158.536 -54.078 304.240
158.930 -54.093 304.324
159.277 -54.092 304.321
159.646 -54.099 304.358
160.026 -54.109 304.415
160.372 -54.108 304.408
160.784 -54.129 304.527
161.116 -54.123 304.493
161.476 -54.126 304.512
161.851 -54.135 304.561
162.264 -54.156 304.680
162.634 -54.162 304.717
163.009 -54.171 304.765
163.368 -54.174 304.781
163.740 -54.181 304.821
164.109 -54.188 304.858
164.478 -54.194 304.892
164.874 -54.209 304.976
165.220 -54.207 304.970
165.602 -54.218 305.029
165.965 -54.222 305.052
166.342 -54.231 305.100
166.720 -54.240 305.151
167.115 -54.254 305.233
167.549 -54.281 305.385
167.889 -54.278 305.366
168.260 -54.284 305.403
168.530 -54.258 305.256
168.934 -54.275 305.352
169.310 -54.284 305.398
169.729 -54.306 305.522
170.083 -54.306 305.527
170.478 -54.321 305.607
170.838 -54.323 305.622
171.208 -54.330 305.656
171.577 -54.335 305.689
171.936 -54.338 305.703
172.317 -54.347 305.756
172.676 -54.350 305.771
173.099 -54.372 305.898
173.458 -54.375 305.911
109.902 -52.852 299.279
110.276 -52.867 299.362
110.612 -52.863 299.340
110.988 -52.879 299.429
111.366 -52.895 299.519
111.718 -52.898 299.540
112.103 -52.918 299.651
112.436 -52.913 299.621
112.813 -52.928 299.709
113.139 -52.920 299.661
113.460 -52.909 299.601
113.832 -52.922 299.673
114.228 -52.946 299.811
114.582 -52.951 299.836
114.925 -52.950 299.832
115.286 -52.957 299.875
115.622 -52.954 299.853
115.991 -52.965 299.917
116.344 -52.969 299.940
116.725 -52.985 300.033
117.073 -52.987 300.043
117.471 -53.011 300.180
117.853 -53.028 300.275
118.229 -53.042 300.354
118.596 -53.052 300.410
118.942 -53.053 300.413
119.274 -53.046 300.379
119.635 -53.054 300.420
120.000 -53.063 300.470
120.365 -53.071 300.520
120.722 -53.077 300.551
121.068 -53.077 300.552
121.424 -53.082 300.579
121.794 -53.093 300.640
122.149 -53.097 300.664
122.491 -53.096 300.658
122.888 -53.118 300.783
123.230 -53.116 300.774
123.638 -53.143 300.928
123.969 -53.137 300.892
124.353 -53.154 300.985
124.689 -53.149 300.962
125.097 -53.176 301.113
125.429 -53.170 301.079
125.791 -53.177 301.118
126.147 -53.181 301.142
126.511 -53.189 301.187
126.877 -53.198 301.235
127.235 -53.203 301.263
127.600 -53.210 301.307
127.942 -53.209 301.299
128.304 -53.216 301.337
128.655 -53.218 301.348
129.075 -53.248 301.521
129.428 -53.251 301.537
129.794 -53.259 301.581
130.154 -53.264 301.613
130.513 -53.270 301.644
130.871 -53.274 301.669
131.234 -53.281 301.709
131.588 -53.284 301.725
131.932 -53.283 301.720
132.315 -53.298 301.803
132.677 -53.304 301.837
133.055 -53.317 301.910
133.398 -53.315 301.901
133.773 -53.327 301.965
134.140 -53.335 302.010
134.504 -53.341 302.048
134.861 -53.346 302.073
135.239 -53.358 302.141
135.609 -53.367 302.193
135.971 -53.373 302.226
136.349 -53.385 302.294
136.699 -53.386 302.301
137.076 -53.398 302.368
137.426 -53.399 302.373
137.795 -53.407 302.421
138.165 -53.416 302.471
138.530 -53.423 302.509
138.886 -53.426 302.529
139.237 -53.428 302.537
139.613 -53.439 302.599
139.988 -53.449 302.658
140.366 -53.460 302.723
140.734 -53.468 302.767
141.124 -53.484 302.858
141.470 -53.484 302.856
141.831 -53.489 302.883
142.172 -53.486 302.868
142.552 -53.498 302.936
142.929 -53.509 302.999
143.315 -53.524 303.080
143.672 -53.527 303.098
144.041 -53.535 303.143
144.433 -53.551 303.234
144.808 -53.561 303.291
145.157 -53.561 303.292
145.523 -53.568 303.330
145.897 -53.577 303.382
146.278 -53.589 303.450
146.670 -53.605 303.541
147.034 -53.610 303.572
147.386 -53.612 303.578
147.711 -53.603 303.530
148.142 -53.633 303.699
148.518 -53.643 303.757
148.860 -53.641 303.743
149.208 -53.640 303.741
149.599 -53.655 303.825
149.943 -53.653 303.816
150.306 -53.658 303.844
150.700 -53.675 303.935
151.078 -53.685 303.995
151.474 -53.702 304.089
151.832 -53.705 304.106
152.230 -53.722 304.204
152.588 -53.725 304.221
152.940 -53.726 304.225
153.245 -53.710 304.137
153.621 -53.720 304.191
154.050 -53.747 304.348
154.440 -53.762 304.429
154.814 -53.770 304.477
155.168 -53.772 304.484
155.537 -53.778 304.523
155.888 -53.779 304.526
156.279 -53.793 304.606
156.606 -53.785 304.563
157.004 -53.802 304.655
157.373 -53.808 304.693
157.760 -53.821 304.764
158.127 -53.827 304.798
158.490 -53.831 304.823
158.893 -53.849 304.924
159.241 -53.849 304.920
159.632 -53.862 304.999
159.975 -53.860 304.985
160.364 -53.873 305.058
160.722 -53.876 305.073
161.115 -53.890 305.154
161.446 -53.883 305.117
161.849 -53.901 305.215
162.232 -53.912 305.278
162.605 -53.919 305.319
162.981 -53.928 305.367
163.345 -53.932 305.392
163.734 -53.944 305.463
164.082 -53.944 305.459
164.482 -53.960 305.551
164.816 -53.954 305.518
165.223 -53.973 305.623
165.569 -53.971 305.613
165.956 -53.983 305.679
166.319 -53.987 305.703
166.709 -53.999 305.774
167.090 -54.009 305.828
167.503 -54.029 305.942
167.909 -54.047 306.042
168.226 -54.035 305.978
168.532 -54.021 305.897
168.843 -54.008 305.824
169.287 -54.038 305.991
169.660 -54.045 306.030
170.053 -54.058 306.105
170.425 -54.064 306.141
170.801 -54.072 306.185
171.179 -54.080 306.233
171.553 -54.087 306.273
171.926 -54.094 306.311
172.282 -54.096 306.319
172.664 -54.105 306.372
173.019 -54.106 306.377
173.425 -54.123 306.473
109.793 -52.621 299.921
110.155 -52.630 299.968
110.484 -52.622 299.926
110.879 -52.646 300.063
111.218 -52.643 300.048
111.597 -52.660 300.139
111.946 -52.662 300.152
112.326 -52.679 300.248
112.663 -52.675 300.227
113.052 -52.695 300.343
113.366 -52.681 300.263
113.720 -52.685 300.285
114.094 -52.699 300.362
114.468 -52.712 300.439
114.797 -52.705 300.398
115.151 -52.709 300.422
115.506 -52.714 300.447
115.857 -52.716 300.464
116.205 -52.718 300.471
116.527 -52.707 300.412
116.968 -52.751 300.659
117.348 -52.766 300.747
117.762 -52.797 300.922
118.094 -52.791 300.888
118.480 -52.809 300.990
118.813 -52.803 300.960
119.163 -52.805 300.969
119.498 -52.801 300.943
119.884 -52.818 301.044
120.244 -52.825 301.080
120.608 -52.833 301.126
120.961 -52.836 301.144
121.300 -52.833 301.127
121.667 -52.842 301.181
122.028 -52.849 301.218
122.391 -52.856 301.260
122.743 -52.859 301.274
123.143 -52.882 301.407
123.502 -52.888 301.439
123.867 -52.895 301.484
124.230 -52.903 301.525
124.607 -52.916 301.601
124.961 -52.919 301.618
125.318 -52.924 301.645
125.689 -52.934 301.704
126.043 -52.937 301.721
126.401 -52.942 301.749
126.741 -52.939 301.734
127.130 -52.957 301.834
127.491 -52.963 301.869
127.853 -52.970 301.906
128.195 -52.968 301.895
128.583 -52.984 301.990
128.939 -52.988 302.013
129.322 -53.003 302.096
129.682 -53.008 302.127
130.051 -53.017 302.179
130.391 -53.015 302.163
130.767 -53.026 302.230
131.123 -53.030 302.250
131.476 -53.032 302.264
131.852 -53.044 302.331
132.206 -53.047 302.347
132.579 -53.057 302.404
132.937 -53.061 302.429
133.316 -53.074 302.501
133.658 -53.072 302.490
134.080 -53.101 302.658
134.402 -53.091 302.600
134.777 -53.102 302.663
135.137 -53.107 302.691
135.537 -53.128 302.807
135.879 -53.126 302.795
136.259 -53.138 302.867
136.636 -53.150 302.932
136.998 -53.155 302.962
137.353 -53.158 302.979
137.683 -53.151 302.939
138.100 -53.177 303.090
138.452 -53.179 303.100
138.837 -53.193 303.181
139.162 -53.184 303.130
139.562 -53.204 303.243
139.927 -53.210 303.278
140.322 -53.228 303.381
140.681 -53.232 303.403
141.057 -53.243 303.463
141.434 -53.253 303.524
141.773 -53.250 303.502
142.130 -53.253 303.521
142.472 -53.251 303.508
142.897 -53.279 303.670
143.251 -53.281 303.681
143.650 -53.300 303.787
143.980 -53.293 303.748
144.398 -53.318 303.894
144.750 -53.320 303.901
145.109 -53.323 303.920
145.478 -53.331 303.963
145.841 -53.335 303.991
146.214 -53.344 304.043
146.579 -53.350 304.074
146.988 -53.372 304.199
147.331 -53.369 304.185
147.698 -53.376 304.221
148.024 -53.367 304.174
148.458 -53.398 304.347
148.847 -53.412 304.429
149.206 -53.416 304.449
149.529 -53.406 304.393
149.876 -53.405 304.389
150.232 -53.407 304.401
150.624 -53.422 304.487
151.031 -53.443 304.603
151.406 -53.452 304.654
151.790 -53.464 304.722
152.142 -53.464 304.727
152.532 -53.479 304.807
152.865 -53.473 304.773
153.223 -53.475 304.789
153.565 -53.473 304.774
153.988 -53.498 304.918
154.371 -53.510 304.984
154.761 -53.523 305.061
155.127 -53.529 305.092
155.475 -53.528 305.089
155.855 -53.538 305.146
156.223 -53.544 305.179
156.599 -53.553 305.230
156.941 -53.550 305.213
157.338 -53.566 305.304
157.705 -53.571 305.336
158.100 -53.586 305.422
158.448 -53.585 305.416
158.837 -53.598 305.490
159.202 -53.603 305.517
159.580 -53.612 305.569
159.939 -53.615 305.584
160.292 -53.616 305.590
160.692 -53.632 305.682
161.047 -53.633 305.689
161.411 -53.638 305.714
161.768 -53.640 305.726
162.181 -53.660 305.842
162.542 -53.663 305.861
162.925 -53.674 305.920
163.286 -53.677 305.939
163.673 -53.689 306.005
164.050 -53.697 306.053
164.418 -53.703 306.085
164.796 -53.711 306.134
165.146 -53.711 306.131
165.552 -53.728 306.231
165.901 -53.728 306.227
166.289 -53.739 306.293
166.655 -53.744 306.319
167.037 -53.754 306.376
167.434 -53.768 306.458
167.839 -53.785 306.555
168.218 -53.794 306.603
168.518 -53.777 306.510
168.886 -53.782 306.539
169.209 -53.773 306.486
169.666 -53.807 306.677
170.015 -53.806 306.671
170.428 -53.825 306.781
170.788 -53.827 306.794
171.174 -53.838 306.853
171.554 -53.846 306.904
171.920 -53.851 306.928
172.324 -53.867 307.019
172.662 -53.862 306.995
173.056 -53.875 307.067
173.418 -53.878 307.084
173.829 -53.896 307.187
127.037 -40.384 332.427
127.410 -40.381 332.404
127.883 -40.410 332.641
128.249 -40.405 332.601
128.654 -40.412 332.661
129.032 -40.411 332.651
129.427 -40.415 332.683
129.822 -40.419 332.716
130.217 -40.423 332.749
130.624 -40.431 332.814
131.015 -40.434 332.836
131.452 -40.450 332.974
131.821 -40.446 332.942
132.254 -40.462 333.068
132.625 -40.458 333.040
133.034 -40.466 333.106
133.436 -40.472 333.154
133.882 -40.491 333.312
134.260 -40.490 333.302
134.666 -40.497 333.358
135.066 -40.502 333.401
135.476 -40.510 333.469
135.886 -40.518 333.534
136.273 -40.520 333.545
136.670 -40.524 333.579
137.045 -40.521 333.560
137.467 -40.533 333.654
137.885 -40.543 333.739
138.316 -40.557 333.852
138.690 -40.554 333.831
139.130 -40.571 333.966
139.485 -40.563 333.899
139.887 -40.568 333.943
140.276 -40.570 333.956
140.713 -40.585 334.085
141.115 -40.590 334.127
141.521 -40.597 334.179
141.919 -40.601 334.214
142.317 -40.605 334.246
142.728 -40.613 334.311
143.127 -40.617 334.345
143.554 -40.629 334.446
143.941 -40.630 334.452
144.376 -40.644 334.572
144.754 -40.643 334.557
145.184 -40.655 334.662
145.599 -40.664 334.734
145.986 -40.665 334.740
146.374 -40.666 334.749
146.791 -40.675 334.821
147.198 -40.681 334.874
147.606 -40.688 334.927
148.010 -40.693 334.969
148.412 -40.697 335.009
148.844 -40.711 335.116
149.215 -40.707 335.084
149.659 -40.723 335.218
150.029 -40.719 335.185
150.473 -40.735 335.316
150.868 -40.738 335.339
151.305 -40.752 335.454
151.688 -40.751 335.449
152.099 -40.758 335.505
152.499 -40.762 335.537
152.919 -40.771 335.614
153.335 -40.779 335.680
153.723 -40.780 335.686
154.142 -40.789 335.760
154.528 -40.789 335.762
154.968 -40.803 335.878
155.348 -40.802 335.866
155.779 -40.814 335.965
156.173 -40.816 335.983
156.645 -40.838 336.167
156.985 -40.826 336.070
157.343 -40.819 336.010
157.766 -40.829 336.088
158.206 -40.842 336.202
158.655 -40.859 336.336
159.036 -40.858 336.326
159.464 -40.868 336.414
159.820 -40.861 336.351
160.287 -40.881 336.521
160.651 -40.875 336.473
161.110 -40.894 336.625
161.498 -40.894 336.628
161.946 -40.910 336.755
162.308 -40.903 336.704
162.740 -40.915 336.799
163.148 -40.920 336.842
163.557 -40.926 336.888
163.991 -40.937 336.984
164.380 -40.938 336.989
164.844 -40.957 337.147
165.224 -40.955 337.132
165.676 -40.972 337.264
166.026 -40.962 337.188
166.461 -40.974 337.286
166.844 -40.973 337.277
167.278 -40.984 337.371
167.689 -40.990 337.418
168.111 -40.999 337.487
168.511 -41.002 337.513
168.950 -41.014 337.615
169.333 -41.013 337.606
169.736 -41.017 337.636
170.188 -41.032 337.765
170.578 -41.033 337.768
170.982 -41.037 337.800
171.385 -41.040 337.829
171.840 -41.056 337.963
172.249 -41.061 338.002
172.689 -41.074 338.106
173.081 -41.075 338.112
173.485 -41.078 338.143
173.902 -41.085 338.198
174.307 -41.089 338.232
174.716 -41.094 338.271
175.125 -41.099 338.311
175.587 -41.116 338.453
175.973 -41.115 338.447
176.424 -41.130 338.567
176.803 -41.127 338.548
177.242 -41.139 338.645
177.638 -41.141 338.658
178.045 -41.145 338.692
178.460 -41.151 338.742
178.869 -41.156 338.779
179.354 -41.178 338.961
179.704 -41.169 338.887
180.249 -41.204 339.181
180.593 -41.194 339.095
180.990 -41.196 339.109
181.426 -41.206 339.197
181.835 -41.211 339.233
182.215 -41.209 339.216
182.596 -41.207 339.200
182.992 -41.208 339.211
183.423 -41.217 339.288
183.878 -41.232 339.408
184.293 -41.238 339.455
184.716 -41.245 339.516
185.124 -41.249 339.550
185.574 -41.263 339.661
185.977 -41.265 339.684
186.420 -41.277 339.781
186.840 -41.284 339.835
187.234 -41.284 339.841
187.649 -41.290 339.887
188.072 -41.297 339.945
188.498 -41.305 340.010
188.895 -41.306 340.021
189.343 -41.319 340.125
189.736 -41.320 340.130
190.208 -41.337 340.275
190.590 -41.335 340.259
191.086 -41.358 340.447
191.481 -41.359 340.455
191.860 -41.356 340.433
192.270 -41.361 340.466
192.676 -41.364 340.493
193.113 -41.374 340.575
193.521 -41.377 340.605
126.507 -40.076 333.042
126.872 -40.070 332.995
127.313 -40.089 333.150
127.724 -40.098 333.224
128.149 -40.111 333.334
128.509 -40.104 333.275
128.906 -40.109 333.311
129.298 -40.111 333.335
129.717 -40.123 333.428
130.111 -40.126 333.458
130.507 -40.130 333.490
130.899 -40.133 333.514
131.322 -40.145 333.614
131.722 -40.150 333.658
132.115 -40.153 333.683
132.543 -40.167 333.797
132.904 -40.160 333.742
133.347 -40.178 333.891
133.753 -40.185 333.947
134.170 -40.195 334.031
134.545 -40.192 334.008
134.963 -40.203 334.095
135.368 -40.209 334.146
135.795 -40.222 334.254
136.189 -40.225 334.278
136.571 -40.224 334.273
136.972 -40.229 334.315
137.368 -40.233 334.345
137.803 -40.248 334.470
138.211 -40.255 334.527
138.617 -40.261 334.581
139.008 -40.263 334.597
139.428 -40.274 334.683
139.808 -40.272 334.672
140.215 -40.279 334.726
140.607 -40.281 334.744
141.026 -40.291 334.827
141.428 -40.296 334.868
141.828 -40.300 334.904
142.261 -40.314 335.018
142.657 -40.317 335.045
143.061 -40.323 335.091
143.457 -40.326 335.116
143.882 -40.337 335.211
144.271 -40.338 335.220
144.709 -40.353 335.343
145.074 -40.347 335.296
145.553 -40.374 335.513
145.972 -40.383 335.590
146.305 -40.369 335.472
146.642 -40.355 335.361
147.087 -40.371 335.496
147.534 -40.388 335.637
147.939 -40.394 335.683
148.350 -40.401 335.740
148.752 -40.405 335.777
149.181 -40.417 335.874
149.567 -40.417 335.875
150.008 -40.432 335.998
150.363 -40.424 335.931
150.829 -40.445 336.109
151.214 -40.445 336.107
151.645 -40.457 336.207
152.026 -40.456 336.196
152.434 -40.462 336.245
152.847 -40.469 336.303
153.279 -40.481 336.405
153.679 -40.484 336.434
154.071 -40.486 336.446
154.499 -40.497 336.537
154.900 -40.501 336.569
155.338 -40.514 336.682
155.719 -40.513 336.670
156.147 -40.523 336.759
156.548 -40.527 336.790
156.970 -40.536 336.866
157.357 -40.536 336.864
157.776 -40.544 336.933
158.167 -40.546 336.943
158.601 -40.558 337.043
159.018 -40.565 337.106
159.418 -40.569 337.134
159.817 -40.571 337.158
160.219 -40.575 337.190
160.672 -40.592 337.328
161.061 -40.592 337.332
161.519 -40.610 337.479
161.905 -40.610 337.476
162.345 -40.623 337.586
162.722 -40.620 337.564
163.128 -40.625 337.602
163.545 -40.632 337.662
163.951 -40.636 337.698
164.368 -40.644 337.759
164.809 -40.657 337.869
165.258 -40.672 337.994
165.643 -40.671 337.988
166.083 -40.684 338.092
166.426 -40.673 338.001
166.854 -40.683 338.082
167.236 -40.681 338.069
167.664 -40.691 338.149
168.066 -40.694 338.178
168.496 -40.704 338.261
168.920 -40.713 338.331
169.292 -40.709 338.299
169.744 -40.724 338.425
170.114 -40.719 338.388
170.589 -40.740 338.560
170.944 -40.732 338.493
171.400 -40.748 338.626
171.754 -40.740 338.558
172.227 -40.760 338.723
172.638 -40.765 338.767
173.070 -40.775 338.850
173.480 -40.780 338.892
173.877 -40.782 338.908
174.293 -40.788 338.958
174.676 -40.787 338.947
175.115 -40.798 339.043
175.512 -40.800 339.059
175.987 -40.820 339.224
176.367 -40.818 339.205
176.814 -40.831 339.316
177.200 -40.830 339.309
177.627 -40.839 339.380
178.023 -40.840 339.392
178.448 -40.848 339.458
178.854 -40.852 339.490
179.293 -40.863 339.584
179.669 -40.860 339.556
180.195 -40.891 339.813
180.560 -40.885 339.765
180.922 -40.879 339.713
181.320 -40.881 339.727
181.754 -40.891 339.810
182.156 -40.893 339.832
182.553 -40.895 339.845
182.928 -40.891 339.816
183.335 -40.895 339.847
183.810 -40.914 340.005
184.309 -40.938 340.204
184.690 -40.936 340.187
185.174 -40.957 340.359
185.543 -40.952 340.318
186.021 -40.971 340.479
186.397 -40.968 340.451
186.901 -40.992 340.656
187.275 -40.989 340.626
187.686 -40.993 340.663
188.094 -40.997 340.692
188.503 -41.001 340.724
188.921 -41.006 340.772
189.324 -41.009 340.793
189.756 -41.018 340.867
190.153 -41.019 340.877
190.625 -41.036 341.021
191.046 -41.043 341.073
191.503 -41.057 341.190
191.892 -41.056 341.185
192.317 -41.063 341.244
192.725 -41.067 341.272
193.131 -41.070 341.298
193.580 -41.082 341.398
193.985 -41.084 341.421
126.812 -39.789 333.843
127.175 -39.783 333.791
127.618 -39.801 333.946
127.998 -39.801 333.939
128.409 -39.809 334.011
128.810 -39.814 334.055
129.242 -39.829 334.180
129.630 -39.831 334.191
130.014 -39.831 334.192
130.418 -39.837 334.245
130.798 -39.836 334.235
131.226 -39.849 334.348
131.612 -39.850 334.352
132.039 -39.863 334.461
132.434 -39.866 334.490
132.852 -39.877 334.576
133.242 -39.878 334.589
133.688 -39.896 334.743
134.047 -39.889 334.680
134.489 -39.906 334.824
134.889 -39.911 334.863
135.277 -39.912 334.872
135.688 -39.919 334.936
136.085 -39.923 334.966
136.490 -39.929 335.018
136.886 -39.932 335.045
137.301 -39.941 335.120
137.699 -39.945 335.150
138.109 -39.952 335.211
138.505 -39.956 335.239
138.930 -39.967 335.335
139.301 -39.963 335.303
139.734 -39.977 335.418
140.122 -39.977 335.423
140.545 -39.988 335.515
140.930 -39.988 335.514
141.336 -39.994 335.563
141.750 -40.002 335.632
142.161 -40.010 335.692
